-4506.077148 -2417.492920 -22770.000000 -0.153544 0.988142 0.000000
-4467.174805 -2411.447998 -22770.000000 -0.290473 0.956883 0.000000
-4429.622070 -2399.830078 -22770.000000 -0.533679 0.845687 0.000000
-4396.832031 -2378.211914 -22770.000000 -0.715147 0.698973 0.001197
-4369.703125 -2349.732910 -22770.109375 -0.790701 0.612149 0.008093
-4345.686035 -2318.527100 -22770.470703 -0.836699 0.547318 0.019412
-4324.188965 -2285.531006 -22771.070313 -0.859933 0.509481 0.030722
-4304.154785 -2251.631104 -22771.859375 -0.876225 0.480186 0.040628
-4285.272949 -2217.073975 -22772.789063 -0.886074 0.460993 0.048572
-4267.148926 -2182.118896 -22773.820313 -0.894860 0.442640 0.057416
-4249.755859 -2146.795898 -22774.980469 -0.903020 0.423987 0.069213
-4233.112793 -2111.121094 -22776.310547 -0.910015 0.405706 0.085293
-4217.212891 -2075.117920 -22777.869141 -0.915480 0.388371 0.105190
-4202.027832 -2038.818970 -22779.689453 -0.918456 0.374679 0.126707
-4187.420898 -2002.297974 -22781.779297 -0.917364 0.369030 0.149196
-4173.088867 -1965.687988 -22784.199219 -0.915971 0.361279 0.174573
-4159.127930 -1928.958008 -22786.949219 -0.914146 0.352838 0.199607
-4145.568848 -1892.103027 -22789.990234 -0.915043 0.336176 0.222894
-4132.720215 -1855.004028 -22793.179688 -0.911676 0.334138 0.239162
-4120.003906 -1817.880005 -22796.570313 -0.908182 0.334372 0.251795
-4107.325195 -1780.754028 -22800.140625 -0.904825 0.345035 0.249486
-4094.299072 -1743.785034 -22803.980469 -0.898910 0.351712 0.261263
-4081.041992 -1706.902954 -22808.000000 -0.893582 0.383174 0.233856
-4066.860107 -1670.437012 -22812.400391 -0.883101 0.399756 0.245619
-4051.997070 -1634.233032 -22817.060547 -0.855885 0.477716 0.198111
-4035.363037 -1598.975952 -22822.400391 -0.787100 0.558819 0.261143
-4016.962891 -1564.608032 -22828.300781 -0.622997 0.774823 0.107350
-3994.866943 -1533.012939 -22835.710938 -0.296612 0.952826 0.064376
-3966.479980 -1507.660034 -22845.189453 0.124912 0.990630 -0.055228
-3931.093994 -1496.786011 -22857.970703 0.145689 0.964351 0.220909
-3892.607910 -1496.005005 -22865.699219 0.069273 0.978907 0.192202
-3853.310059 -1497.722046 -22865.519531 0.004409 0.991489 0.130116
-3814.552979 -1497.985962 -22858.769531 -0.038984 0.994623 0.095949
-3777.281006 -1497.548950 -22846.119141 -0.090830 0.995432 0.029397
-3741.680908 -1495.317017 -22829.480469 -0.195670 0.977922 -0.073366
-3707.021973 -1487.864990 -22812.460938 -0.374099 0.911674 -0.169998
-3674.312988 -1471.363037 -22798.320313 -0.560730 0.800977 -0.209805
-3645.141113 -1446.462036 -22789.650391 -0.678191 0.711497 -0.183925
-3618.391113 -1418.243042 -22783.599609 -0.741186 0.653714 -0.152649
-3593.447998 -1388.067993 -22779.160156 -0.773226 0.621307 -0.126887
-3569.189941 -1357.277954 -22775.439453 -0.803750 0.586314 -0.101105
-3546.417969 -1325.230957 -22772.900391 -0.823962 0.562348 -0.069652
-3524.435059 -1292.588989 -22771.460938 -0.835825 0.547437 -0.041340
-3502.989014 -1259.552979 -22770.710938 -0.841007 0.540580 -0.021892
-3481.737061 -1226.392944 -22770.380859 -0.843480 0.537050 -0.010874
-3460.595947 -1193.156006 -22770.210938 -0.844879 0.534925 -0.005921
-3439.542969 -1159.865967 -22770.099609 -0.845459 0.534029 -0.003518
-3418.503906 -1126.564941 -22770.039063 -0.846022 0.533144 -0.002183
-3397.517090 -1093.233032 -22770.000000 -0.846642 0.532160 -0.001638
-3376.487061 -1059.927002 -22770.000000 -0.849984 0.526808 -0.000366
-3355.762939 -1026.430054 -22770.000000 -0.852064 0.523438 -0.000059
-3335.186035 -992.842712 -22770.000000 -0.852217 0.523189 -0.000008
-3314.599121 -959.260681 -22770.000000 -0.852031 0.523492 -0.000001
-3293.995117 -925.689819 -22770.000000 -0.852485 0.522752 -0.000000
-3273.387939 -892.119629 -22770.000000 -0.853897 0.520442 -0.000000
-3252.875977 -858.494202 -22770.000000 -0.854258 0.519850 -0.000000
-3232.569092 -824.739014 -22770.000000 -0.843154 0.537673 -0.000000
-3212.085938 -791.099609 -22770.000000 -0.806203 0.591638 -0.000000
-3190.702881 -758.024719 -22770.000000 -0.750376 0.661011 -0.000000
-3166.827881 -726.696716 -22770.000000 -0.756966 0.653454 -0.000000
-3142.888916 -695.423523 -22770.000000 -0.655058 0.755579 -0.000000
-3116.793945 -665.947388 -22770.000000 -0.492280 0.870437 -0.000000
-3086.784912 -640.488770 -22770.000000 -0.412872 0.910789 -0.000000
-3053.676025 -619.167419 -22770.000000 -0.472026 0.881585 -0.000000
-3020.000000 -598.741882 -22770.000000 -0.507673 0.861550 -0.000000
