-4506.077148 -2417.492920 -22750.000000 -0.153474 0.988153 0.000000
-4467.272949 -2411.466064 -22750.000000 -0.289567 0.957158 0.000000
-4429.801758 -2399.915039 -22750.000000 -0.532121 0.846668 0.000000
-4397.051758 -2378.416016 -22750.000000 -0.712195 0.701981 0.001075
-4369.862793 -2350.129883 -22750.099609 -0.786691 0.617295 0.008024
-4345.700195 -2319.162109 -22750.470703 -0.833133 0.552738 0.019269
-4324.044922 -2286.389893 -22751.070313 -0.857092 0.514284 0.030086
-4303.873047 -2252.687988 -22751.849609 -0.873845 0.484548 0.040096
-4284.868164 -2218.312988 -22752.779297 -0.884123 0.464729 0.048509
-4266.644043 -2183.522949 -22753.820313 -0.892359 0.447773 0.056520
-4249.091797 -2148.389893 -22754.970703 -0.899518 0.431528 0.068196
-4232.193848 -2112.946045 -22756.310547 -0.905970 0.414873 0.084253
-4215.974121 -2077.196045 -22757.890625 -0.911155 0.398910 0.103280
-4200.413086 -2041.166992 -22759.730469 -0.914273 0.385532 0.124380
-4185.416992 -2004.912964 -22761.849609 -0.913042 0.380711 0.146334
-4170.664063 -1968.582031 -22764.310547 -0.911366 0.374322 0.171161
-4156.229004 -1932.147949 -22767.119141 -0.910063 0.364798 0.196742
-4142.240234 -1895.566040 -22770.230469 -0.911800 0.346924 0.219693
-4129.006836 -1858.714966 -22773.480469 -0.909765 0.340246 0.237824
-4116.086914 -1821.769043 -22776.910156 -0.906384 0.341217 0.249076
-4103.175781 -1784.837036 -22780.519531 -0.902526 0.346159 0.256165
-4090.126953 -1747.975952 -22784.349609 -0.898922 0.356910 0.254074
-4076.715088 -1711.267944 -22788.400391 -0.892937 0.373168 0.251810
-4062.754883 -1674.803955 -22792.750000 -0.852773 0.430320 0.295977
-4047.777100 -1638.776001 -22797.400391 -0.870039 0.439923 0.222488
-4031.596924 -1603.373047 -22802.630859 -0.773583 0.542646 0.327269
-4013.211914 -1569.128052 -22808.449219 -0.691412 0.709035 0.138631
-3991.967041 -1536.959961 -22815.660156 -0.353554 0.927467 0.121677
-3964.470947 -1510.613037 -22824.640625 0.045221 0.997737 -0.049758
-3929.938965 -1497.479004 -22837.339844 0.159341 0.957296 0.241236
-3891.747070 -1495.957031 -22845.710938 0.078832 0.972829 0.217689
-3852.568115 -1497.812012 -22845.330078 0.001572 0.990129 0.140149
-3814.041992 -1497.935059 -22837.919922 -0.048425 0.994228 0.095743
-3777.225098 -1497.317993 -22824.289063 -0.109527 0.993933 0.010068
-3741.979980 -1494.130005 -22807.300781 -0.225438 0.969653 -0.094613
-3707.655029 -1484.995972 -22790.669922 -0.398321 0.899668 -0.178710
-3675.235107 -1467.376953 -22777.460938 -0.568218 0.797521 -0.202706
-3645.895996 -1442.651001 -22769.259766 -0.678301 0.713359 -0.176146
-3619.083984 -1414.578003 -22763.339844 -0.737093 0.659493 -0.147523
-3593.889893 -1384.744019 -22758.980469 -0.768664 0.627671 -0.123225
-3569.527100 -1354.149048 -22755.300781 -0.795439 0.598139 -0.097499
-3546.227051 -1322.610962 -22752.820313 -0.816989 0.572797 -0.066575
-3523.885010 -1290.328003 -22751.410156 -0.830640 0.555420 -0.039317
-3502.163086 -1257.595947 -22750.689453 -0.838229 0.544933 -0.020521
-3480.806885 -1224.619019 -22750.369141 -0.842323 0.538877 -0.010187
-3459.667969 -1191.500977 -22750.210938 -0.844325 0.535800 -0.005713
-3438.642090 -1158.311035 -22750.099609 -0.845040 0.534692 -0.003569
-3417.631104 -1125.110962 -22750.029297 -0.845702 0.533651 -0.002008
-3396.674072 -1091.876953 -22750.000000 -0.846551 0.532307 -0.001184
-3375.690918 -1058.660034 -22750.000000 -0.850099 0.526623 -0.000256
-3355.033936 -1025.238037 -22750.000000 -0.852087 0.523400 -0.000041
-3334.507080 -991.737122 -22750.000000 -0.852260 0.523118 -0.000005
-3313.972900 -958.239929 -22750.000000 -0.852050 0.523460 -0.000001
-3293.420898 -924.754395 -22750.000000 -0.852576 0.522604 -0.000000
-3272.865967 -891.269409 -22750.000000 -0.853971 0.520321 -0.000000
-3252.412109 -857.725220 -22750.000000 -0.854227 0.519900 -0.000000
-3232.156006 -824.056274 -22750.000000 -0.842840 0.538165 -0.000000
-3211.721924 -790.503479 -22750.000000 -0.805198 0.593006 -0.000000
-3190.356934 -757.536926 -22750.000000 -0.750200 0.661211 -0.000000
-3166.520996 -726.302612 -22750.000000 -0.756989 0.653428 -0.000000
-3142.642090 -695.109680 -22750.000000 -0.653763 0.756699 -0.000000
-3116.581055 -665.737488 -22750.000000 -0.491639 0.870799 -0.000000
-3086.624023 -640.371704 -22750.000000 -0.413093 0.910689 -0.000000
-3053.590088 -619.116089 -22750.000000 -0.472416 0.881376 -0.000000
-3020.000000 -598.741882 -22750.000000 -0.507790 0.861481 -0.000000
