7363.0 -1812.391 7554.499 0.065 0.998 0.000
7383.958 -1811.295 7559.525 0.135 0.991 0.000
7404.675 -1808.014 7564.525 0.238 0.971 0.000
7424.936 -1802.585 7569.525 0.338 0.941 0.000
7444.519 -1795.068 7574.525 0.435 0.901 0.000
7463.208 -1785.545 7579.525 0.526 0.850 0.000
7480.8 -1774.121 7584.525 0.612 0.790 0.000
7497.099 -1760.921 7589.525 0.692 0.722 0.000
7511.931 -1746.089 7594.525 0.764 0.646 0.000
7525.131 -1729.788 7599.525 0.827 0.562 0.000
7536.555 -1712.197 7604.525 0.881 0.473 0.000
7546.078 -1693.508 7609.525 0.926 0.378 0.000
7553.594 -1673.925 7614.525 0.960 0.279 0.000
7559.023 -1653.665 7619.525 0.984 0.177 0.000
7562.304 -1632.948 7624.525 0.997 0.074 0.000
7563.402 -1612.001 7629.525 1.000 -0.031 0.000
7562.304 -1591.054 7634.525 0.991 -0.135 0.000
7559.023 -1570.337 7639.525 0.971 -0.238 0.000
7553.594 -1550.076 7644.525 0.941 -0.339 0.000
7546.077 -1530.494 7649.525 0.900 -0.435 0.000
7536.554 -1511.805 7654.525 0.850 -0.527 0.000
7525.13 -1494.214 7659.525 0.790 -0.613 0.000
7511.93 -1477.912 7664.525 0.722 -0.692 0.000
7497.098 -1463.08 7669.525 0.646 -0.764 0.000
7480.799 -1449.88 7674.525 0.562 -0.827 0.000
7463.208 -1438.456 7679.525 0.473 -0.881 0.000
7444.518 -1428.934 7684.525 0.378 -0.926 0.000
7424.935 -1421.417 7689.525 0.279 -0.960 0.000
7404.674 -1415.988 7694.525 0.177 -0.984 0.000
7383.957 -1412.707 7699.525 0.073 -0.997 0.000
7363.011 -1411.609 7704.525 -0.031 -1.000 -0.001
7342.042 -1412.702 7709.525 -0.135 -0.991 -0.001
7321.325 -1415.984 7714.525 -0.238 -0.971 -0.001
7301.064 -1421.413 7719.525 -0.338 -0.941 -0.001
7281.481 -1428.93 7724.525 -0.435 -0.901 -0.001
7262.792 -1438.452 7729.525 -0.526 -0.850 -0.001
7245.2 -1449.876 7734.525 -0.612 -0.790 -0.001
7228.901 -1463.077 7739.525 -0.692 -0.722 -0.001
7214.069 -1477.909 7744.525 -0.764 -0.646 -0.001
7200.869 -1494.209 7749.525 -0.827 -0.562 -0.001
7189.445 -1511.801 7754.525 -0.881 -0.473 -0.001
7179.922 -1530.49 7759.525 -0.926 -0.378 -0.001
7172.406 -1550.072 7764.525 -0.960 -0.279 -0.001
7166.977 -1570.333 7769.525 -0.984 -0.177 -0.001
7163.696 -1591.05 7774.525 -0.997 -0.074 -0.001
7162.598 -1611.997 7779.525 -1.000 0.031 -0.001
7163.696 -1632.944 7784.525 -0.991 0.135 -0.001
7166.977 -1653.661 7789.525 -0.971 0.238 -0.001
7172.406 -1673.921 7794.525 -0.941 0.339 -0.001
7179.923 -1693.504 7799.525 -0.900 0.435 -0.001
7189.446 -1712.193 7804.525 -0.850 0.527 -0.001
7200.87 -1729.784 7809.525 -0.790 0.613 -0.001
7214.07 -1746.085 7814.525 -0.722 0.692 -0.001
7228.902 -1760.917 7819.525 -0.646 0.764 -0.001
7245.201 -1774.118 7824.525 -0.562 0.827 -0.001
7262.792 -1785.542 7829.525 -0.473 0.881 -0.001
7281.482 -1795.064 7834.525 -0.378 0.926 -0.001
7301.065 -1802.581 7839.525 -0.279 0.960 -0.001
7321.326 -1808.01 7844.525 -0.177 0.984 -0.001
7342.043 -1811.291 7849.525 -0.088 0.996 -0.001
