800.0042 -940.3922 2547.5 0.066 0.998 0.000
820.9514 -939.2943 2552.5 0.135 0.991 0.000
841.6686 -936.0129 2557.5 0.238 0.971 0.000
861.9293 -930.584 2562.5 0.338 0.941 0.000
881.5115 -923.067 2567.5 0.435 0.901 0.000
900.2006 -913.5443 2572.5 0.526 0.850 0.000
917.7921 -902.1202 2577.5 0.612 0.790 0.000
934.093 -888.9199 2582.5 0.692 0.722 0.000
948.9248 -874.088 2587.5 0.764 0.646 0.000
962.125 -857.787 2592.5 0.827 0.562 0.000
973.549 -840.1956 2597.5 0.881 0.473 0.000
983.0715 -821.5063 2602.5 0.926 0.378 0.000
990.5884 -801.924 2607.5 0.960 0.279 0.000
996.0172 -781.6633 2612.5 0.984 0.177 0.000
999.2983 -760.9462 2617.5 0.997 0.074 0.000
1000.396 -739.9995 2622.5 1.000 -0.031 0.000
999.2983 -719.0529 2627.5 0.991 -0.135 0.000
996.017 -698.3357 2632.5 0.971 -0.238 0.000
990.5881 -678.075 2637.5 0.941 -0.339 0.000
983.0711 -658.4928 2642.5 0.900 -0.435 0.000
973.5485 -639.8036 2647.5 0.850 -0.527 0.000
962.1244 -622.2122 2652.5 0.790 -0.613 0.000
948.9241 -605.9113 2657.5 0.722 -0.692 0.000
934.0922 -591.0794 2662.5 0.646 -0.764 0.000
917.7913 -577.8792 2667.5 0.562 -0.827 0.000
900.1998 -566.4552 2672.5 0.473 -0.881 0.000
881.5106 -556.9326 2677.5 0.378 -0.926 0.000
861.9283 -549.4156 2682.5 0.279 -0.960 0.000
841.6677 -543.9868 2687.5 0.177 -0.984 0.000
820.9505 -540.7056 2692.5 0.073 -0.997 0.000
800.0038 -539.6078 2697.5 -0.031 -1.000 -0.001
779.0571 -540.7056 2702.5 -0.135 -0.991 -0.001
758.34 -543.9869 2707.1 -0.246 -0.969 -0.001
738.0793 -549.4158 2711.7 -0.365 -0.931 -0.001
719.0761 -557.9585 2716.0 -0.438 -0.899 -0.001
700.4106 -567.265 2720.0 -0.492 -0.870 -0.001
682.4473 -577.1964 2724.0 -0.594 -0.805 -0.001
666.178 -590.3708 2728.5 -0.692 -0.722 -0.001
651.3752 -605.1736 2733.5 -0.763 -0.646 -0.001
638.2007 -621.4426 2738.5 -0.827 -0.562 -0.001
626.7991 -638.9996 2743.5 -0.881 -0.473 -0.001
617.2949 -657.6523 2748.5 -0.926 -0.378 -0.001
609.7927 -677.1962 2753.5 -0.960 -0.279 -0.001
604.3745 -697.4172 2758.5 -0.984 -0.177 -0.001
601.0996 -718.0938 2763.5 -0.997 -0.074 -0.001
600.0039 -738.9994 2768.5 -1.000 0.031 -0.001
601.0996 -759.9051 2773.5 -0.991 0.135 -0.001
604.3743 -780.5817 2778.5 -0.971 0.238 -0.001
609.7925 -800.8028 2783.5 -0.941 0.339 -0.001
617.2944 -820.3467 2788.5 -0.900 0.435 -0.001
626.7983 -838.9994 2793.5 -0.850 0.527 -0.001
638.2001 -856.5565 2798.5 -0.790 0.613 -0.001
651.3745 -872.8256 2803.5 -0.722 0.692 -0.001
666.1772 -887.6284 2808.5 -0.646 0.764 -0.001
682.4462 -900.803 2813.5 -0.562 0.827 -0.001
700.0032 -912.2047 2818.5 -0.473 0.881 -0.001
718.6558 -921.7087 2823.5 -0.378 0.926 -0.001
738.1997 -929.2111 2828.5 -0.279 0.960 -0.001
758.4207 -934.6293 2833.5 -0.177 0.984 -0.001
779.0974 -937.9043 2838.5 -0.088 0.996 -0.001
