4042.004 -940.3922 4606.5 0.066 0.998 0.000
4062.951 -939.2943 4611.5 0.135 0.991 0.000
4083.668 -936.0129 4616.5 0.238 0.971 0.000
4103.929 -930.584 4621.5 0.338 0.941 0.000
4123.511 -923.067 4626.5 0.435 0.901 0.000
4142.201 -913.5443 4631.5 0.526 0.850 0.000
4159.792 -902.1202 4636.5 0.612 0.790 0.000
4176.093 -888.9199 4641.5 0.692 0.722 0.000
4190.925 -874.088 4646.5 0.764 0.646 0.000
4204.125 -857.787 4651.5 0.827 0.562 0.000
4215.549 -840.1956 4656.5 0.881 0.473 0.000
4225.071 -821.5063 4661.5 0.926 0.378 0.000
4232.588 -801.924 4666.5 0.960 0.279 0.000
4238.017 -781.6633 4671.5 0.984 0.177 0.000
4241.298 -760.9462 4676.5 0.997 0.074 0.000
4242.396 -739.9995 4681.5 1.000 -0.031 0.000
4241.298 -719.0529 4686.5 0.991 -0.135 0.000
4238.017 -698.3357 4691.5 0.971 -0.238 0.000
4232.588 -678.075 4696.5 0.941 -0.339 0.000
4225.071 -658.4928 4701.5 0.900 -0.435 0.000
4215.548 -639.8036 4706.5 0.850 -0.527 0.000
4204.125 -622.2122 4711.5 0.790 -0.613 0.000
4190.924 -605.9113 4716.5 0.722 -0.692 0.000
4176.092 -591.0794 4721.5 0.646 -0.764 0.000
4159.791 -577.8792 4726.5 0.562 -0.827 0.000
4142.2 -566.4552 4731.5 0.473 -0.881 0.000
4123.511 -556.9326 4736.5 0.378 -0.926 0.000
4103.928 -549.4156 4741.5 0.279 -0.960 0.000
4083.668 -543.9868 4746.5 0.177 -0.984 0.000
4062.95 -540.7056 4751.5 0.073 -0.997 0.000
4042.004 -539.6078 4756.5 -0.031 -1.000 -0.001
4021.057 -540.7056 4761.5 -0.135 -0.991 -0.001
4000.34 -543.9869 4766.1 -0.246 -0.969 -0.001
3980.079 -549.4158 4770.7 -0.365 -0.931 -0.001
3961.076 -557.9585 4775.0 -0.438 -0.899 -0.001
3942.411 -567.265 4779.0 -0.492 -0.870 -0.001
3924.447 -577.1964 4783.0 -0.594 -0.805 -0.001
3908.178 -590.3708 4787.5 -0.692 -0.722 -0.001
3893.375 -605.1736 4792.5 -0.763 -0.646 -0.001
3880.201 -621.4426 4797.5 -0.827 -0.562 -0.001
3868.799 -638.9996 4802.5 -0.881 -0.473 -0.001
3859.295 -657.6523 4807.5 -0.926 -0.378 -0.001
3851.793 -677.1962 4812.5 -0.960 -0.279 -0.001
3846.375 -697.4172 4817.5 -0.984 -0.177 -0.001
3843.1 -718.0938 4822.5 -0.997 -0.074 -0.001
3842.004 -738.9994 4827.5 -1.000 0.031 -0.001
3843.1 -759.9051 4832.5 -0.991 0.135 -0.001
3846.374 -780.5817 4837.5 -0.971 0.238 -0.001
3851.792 -800.8028 4842.5 -0.941 0.339 -0.001
3859.294 -820.3467 4847.5 -0.900 0.435 -0.001
3868.798 -838.9994 4852.5 -0.850 0.527 -0.001
3880.2 -856.5565 4857.5 -0.790 0.613 -0.001
3893.375 -872.8256 4862.5 -0.722 0.692 -0.001
3908.177 -887.6284 4867.5 -0.646 0.764 -0.001
3924.446 -900.803 4872.5 -0.562 0.827 -0.001
3942.003 -912.2047 4877.5 -0.473 0.881 -0.001
3960.656 -921.7087 4882.5 -0.378 0.926 -0.001
3980.2 -929.2111 4887.5 -0.279 0.960 -0.001
4000.421 -934.6293 4892.5 -0.177 0.984 -0.001
4021.097 -937.9043 4897.5 -0.088 0.996 -0.001
