-4506.077 -2417.493 -22770.0 -0.1778561 0.9840563 -5.7584443E-4
-4467.175 -2411.448 -22770.0 -0.29194006 0.95643663 -9.566942E-5
-4429.622 -2399.83 -22770.0 -0.4981515 0.8670899 3.8350103E-4
-4396.832 -2378.212 -22770.0 -0.67912817 0.7340102 0.003739127
-4369.703 -2349.733 -22770.11 -0.7776339 0.6286207 0.011025432
-4345.686 -2318.527 -22770.47 -0.8268615 0.56204164 0.020228295
-4324.189 -2285.531 -22771.07 -0.8556708 0.51664984 0.030004462
-4304.155 -2251.631 -22771.86 -0.87314135 0.48580205 0.04025673
-4285.273 -2217.074 -22772.79 -0.88471675 0.4634264 0.050121754
-4267.149 -2182.119 -22773.82 -0.8938461 0.44454777 0.058450576
-4249.756 -2146.796 -22774.98 -0.9017365 0.42657644 0.07002745
-4233.113 -2111.121 -22776.31 -0.9083402 0.4089931 0.087422356
-4217.213 -2075.118 -22777.87 -0.91361034 0.3920285 0.10784128
-4202.028 -2038.819 -22779.69 -0.9169454 0.37752804 0.12916559
-4187.421 -2002.298 -22781.78 -0.91728383 0.3683409 0.1513781
-4173.089 -1965.688 -22784.2 -0.91592556 0.3610823 0.1752138
-4159.128 -1928.958 -22786.95 -0.9142003 0.35232466 0.20026234
-4145.569 -1892.103 -22789.99 -0.9122963 0.34267923 0.22424641
-4132.72 -1855.004 -22793.18 -0.9093489 0.3373009 0.24354172
-4120.004 -1817.88 -22796.57 -0.9059615 0.33762628 0.2554257
-4107.325 -1780.754 -22800.14 -0.9015065 0.34317076 0.26366615
-4094.299 -1743.785 -22803.98 -0.89458317 0.35475108 0.27179503
-4081.042 -1706.903 -22808.0 -0.88757426 0.37072095 0.27345547
-4066.86 -1670.437 -22812.4 -0.87865055 0.3937015 0.27013397
-4051.997 -1634.233 -22817.06 -0.859701 0.43375257 0.2697646
-4035.363 -1598.976 -22822.4 -0.82751685 0.49339226 0.26791778
-4016.963 -1564.608 -22828.3 -0.7665533 0.59079194 0.25171602
-3994.867 -1533.013 -22835.71 -0.6194691 0.75702655 0.20777103
-3966.48 -1507.66 -22845.19 -0.34887925 0.9295469 0.11927184
-3931.094 -1496.786 -22857.97 -0.090337776 0.9954117 0.031537738
-3892.608 -1496.005 -22865.7 0.016584877 0.99986154 0.0013422533
-3853.31 -1497.722 -22865.52 0.016107162 0.99987024 -2.8831162E-4
-3814.553 -1497.986 -22858.77 -0.011600462 0.99991673 -0.0056565143
-3777.281 -1497.549 -22846.12 -0.057760056 0.9979747 -0.02664996
-3741.681 -1495.317 -22829.48 -0.168765 0.98266596 -0.07672042
-3707.022 -1487.865 -22812.46 -0.35688326 0.9233239 -0.1417999
-3674.313 -1471.363 -22798.32 -0.5532742 0.8144245 -0.17492981
-3645.141 -1446.462 -22789.65 -0.6788341 0.71572834 -0.16406444
-3618.391 -1418.243 -22783.6 -0.7404707 0.6571436 -0.14094454
-3593.448 -1388.068 -22779.16 -0.7741781 0.62166536 -0.11908178
-3569.19 -1357.278 -22775.44 -0.80236024 0.589586 -0.09277033
-3546.418 -1325.231 -22772.9 -0.82424986 0.562812 -0.06208698
-3524.435 -1292.589 -22771.46 -0.8346708 0.54962456 -0.03517838
-3502.989 -1259.553 -22770.71 -0.8397235 0.5427369 -0.017352967
-3481.737 -1226.393 -22770.38 -0.84246683 0.538688 -0.008052564
-3460.596 -1193.156 -22770.21 -0.8453145 0.53425 -0.004506398
-3439.543 -1159.866 -22770.1 -0.8452175 0.53441566 -0.002684415
-3418.504 -1126.565 -22770.04 -0.84429675 0.53587526 -8.6242345E-4
-3397.517 -1093.233 -22770.0 -0.84450257 0.53555155 1.917506E-4
-3376.487 -1059.927 -22770.0 -0.8472638 0.5311721 4.793763E-4
-3355.763 -1026.43 -22770.0 -0.8510111 0.52514774 1.917506E-4
-3335.186 -992.8427 -22770.0 -0.85191613 0.5236783 0.0
-3314.599 -959.2607 -22770.0 -0.8513631 0.5245764 5.752516E-4
-3293.995 -925.6898 -22770.0 -0.85025465 0.5263709 8.6287723E-4
-3273.388 -892.1196 -22770.0 -0.85096073 0.5252293 1.917506E-4
-3252.876 -858.4942 -22770.0 -0.8530187 0.5218802 -3.841559E-4
-3232.569 -824.739 -22770.0 -0.851162 0.5249029 -3.841559E-4
-3212.086 -791.0996 -22770.0 -0.8373954 0.54659754 1.7484555E-7
-3190.703 -758.0247 -22770.0 -0.8110269 0.5850089 -1.915137E-4
-3166.828 -726.6967 -22770.0 -0.7880599 0.6155984 -4.8000016E-4
-3142.889 -695.4235 -22770.0 -0.7506671 0.66068053 -2.8831162E-4
-3116.794 -665.9474 -22770.0 -0.670074 0.7422942 -2.8831162E-4
-3086.785 -640.4888 -22770.0 -0.5753454 0.8179104 -4.8000016E-4
-3053.676 -619.1674 -22770.0 -0.52427024 0.85155195 -9.566942E-5
-3020.0 -598.7419 -22770.0 -0.52042776 0.8539057 0.0
