-927.6135 2537.22 -3334.494 0.23271665 0.93139994 -0.27988768
-883.6149 2510.325 -3387.411 0.16763246 0.9516345 -0.25747052
-849.9191 2490.387 -3439.165 0.11200428 0.9635669 -0.24288689
-825.9852 2474.522 -3491.067 0.07218953 0.9648911 -0.25253502
-810.8973 2459.579 -3543.848 0.03748387 0.9589214 -0.28118467
-803.6007 2443.244 -3598.583 0.0020305172 0.951388 -0.30798832
-803.2188 2424.491 -3656.509 -0.036576096 0.9431094 -0.33046472
-809.8748 2403.161 -3716.646 -0.09181687 0.9367593 -0.33771536
-825.6439 2380.705 -3774.647 -0.1566657 0.93447614 -0.3197032
-850.9396 2358.804 -3826.267 -0.2299334 0.93835855 -0.2580963
-887.2972 2338.67 -3867.078 -0.27312338 0.95101833 -0.1448024
-935.9064 2320.786 -3892.849 -0.23696853 0.97116846 -0.026034622
-998.3719 2305.36 -3899.712 -0.15639952 0.9872868 0.028355356
-1071.102 2293.46 -3886.526 -0.09764432 0.9944518 0.039127763
-1145.174 2285.019 -3856.844 -0.06325023 0.99714327 0.041288815
-1211.479 2279.021 -3813.561 -0.034981605 0.9986661 0.03797709
-1260.843 2275.254 -3759.97 -0.012382798 0.9994236 0.031609457
-1284.359 2273.064 -3699.941 0.0029285534 0.99976176 0.021629203
-1275.859 2271.681 -3637.163 0.0161213 0.9995047 0.027025929
-1239.217 2269.429 -3575.736 0.04632563 0.9979728 0.043637767
-1181.928 2264.41 -3521.771 0.10420796 0.99275476 0.05982246
-1111.816 2254.625 -3481.522 0.19933623 0.9784407 0.054025855
-1036.953 2238.253 -3461.232 0.3226848 0.9462125 -0.02359015
-965.2896 2213.683 -3466.471 0.37276146 0.9075275 -0.19350114
-901.2056 2180.268 -3499.737 0.3193883 0.90315735 -0.28687608
-841.2295 2141.947 -3553.608 0.28394702 0.9047187 -0.31758174
-782.9614 2100.783 -3618.778 0.27756622 0.90245515 -0.3294416
-726.0212 2058.599 -3686.36 0.2992608 0.9004507 -0.31564462
-668.5117 2018.223 -3747.018 0.35503566 0.90063375 -0.2506164
-607.1199 1981.963 -3790.354 0.38113153 0.9138989 -0.13974069
-541.2037 1950.778 -3814.522 0.36122373 0.93093187 -0.05369643
-471.8464 1923.271 -3824.832 0.33236223 0.9431186 -0.007918595
-400.5774 1898.141 -3826.53 0.31880757 0.94779825 0.006339443
-329.2193 1874.129 -3825.111 0.3314596 0.9434532 -0.0055346913
-259.6964 1849.697 -3826.272 0.37083316 0.92732877 -0.05044026
-194.0065 1822.942 -3835.207 0.40021986 0.9090975 -0.11561037
-132.8334 1793.764 -3852.878 0.40413353 0.8971918 -0.17810912
-75.94887 1763.164 -3877.948 0.38918588 0.89206135 -0.2296973
-23.09705 1732.074 -3909.141 0.36254752 0.8929533 -0.26682144
25.95548 1701.371 -3945.242 0.32710147 0.9006082 -0.2861984
71.53857 1672.141 -3985.125 0.28582436 0.91328573 -0.2901958
113.817 1645.27 -4028.05 0.24734388 0.9234342 -0.29341155
152.4572 1620.356 -4073.887 0.21251065 0.9300055 -0.29988173
186.9839 1596.756 -4122.609 0.18010186 0.9333619 -0.31048182
216.9035 1573.825 -4174.188 0.14846872 0.93379515 -0.32555136
241.7083 1550.919 -4228.578 0.11562939 0.9315678 -0.3446901
260.8791 1527.394 -4285.726 0.07956621 0.9274606 -0.36535743
273.7969 1502.919 -4345.043 0.03762866 0.92257404 -0.38398075
279.6764 1477.708 -4405.04 -0.013224066 0.91715574 -0.3983095
277.7149 1452.022 -4464.12 -0.07590431 0.91251963 -0.40192845
267.036 1426.227 -4520.667 -0.14971635 0.91029805 -0.38593072
246.7478 1400.718 -4572.965 -0.22778343 0.9098295 -0.346879
216.4248 1375.521 -4619.142 -0.29977888 0.9094724 -0.28808418
176.9071 1350.466 -4657.118 -0.3637962 0.90690213 -0.21255787
130.0836 1325.271 -4684.476 -0.41223142 0.9038118 -0.114845894
77.88262 1299.614 -4699.019 -0.42592984 0.9047537 0.0021488392
21.94139 1273.278 -4698.737 -0.3865596 0.9154605 0.11181974
-36.76835 1246.413 -4681.754 -0.31418273 0.931587 0.1828522
-97.37886 1219.048 -4646.479 -0.2579695 0.939592 0.22498587
-155.6216 1190.894 -4595.683 -0.2183051 0.93820375 0.26854545
-205.4445 1161.758 -4534.394 -0.17541909 0.9279129 0.32894677
-240.9138 1131.474 -4467.882 -0.094451204 0.90705144 0.41028836
-256.1785 1099.891 -4401.573 0.08127397 0.8809229 0.4662288
-245.6287 1066.888 -4341.054 0.28658128 0.87874126 0.381687
-207.5392 1032.431 -4290.324 0.36927542 0.89643866 0.24501698
-148.3743 997.3292 -4251.068 0.3872217 0.9115072 0.13861465
-76.16174 962.7212 -4225.218 0.38639003 0.9207844 0.053467263
0.801536 929.8066 -4214.568 0.37749317 0.9254794 -0.031413227
74.12997 899.6896 -4220.67 0.3462919 0.92797023 -0.13767047
135.4875 873.1738 -4245.063 0.25689867 0.9370076 -0.23668508
180.4819 850.3666 -4286.517 0.15022315 0.9478366 -0.2811383
209.0813 829.9584 -4340.04 0.062385745 0.95166224 -0.30074406
221.5761 810.1042 -4400.274 -0.017231515 0.94590914 -0.3239737
218.2955 788.9193 -4461.953 -0.11457061 0.9280213 -0.3544714
199.5891 764.5033 -4519.829 -0.23779856 0.9021257 -0.36002928
166.6171 735.8894 -4569.749 -0.30721158 0.8968254 -0.31831646
124.1898 705.7524 -4613.71 -0.29386488 0.91520244 -0.27576762
79.05631 678.4983 -4656.064 -0.20269108 0.95237446 -0.22781408
38.3559 658.8936 -4701.809 -0.05456835 0.99311286 -0.10367832
9.445621 651.5707 -4756.738 0.01840163 0.99063295 0.13530637
-0.075623 661.3098 -4826.747 0.01840163 0.99063295 0.13530637
