-7057.331 -2433.532 -23415.82 0.25724873 0.8723878 0.41564715
-7039.587 -2452.424 -23387.15 0.33086255 0.73217136 0.59536135
-7034.012 -2463.1 -23377.12 -0.06112817 0.67811936 0.7324053
-7034.75 -2472.714 -23368.28 -0.26116696 0.70790035 0.65625376
-7038.037 -2481.584 -23360.02 -0.14152709 0.7605447 0.63367325
-7039.96 -2489.115 -23351.41 -0.004767104 0.8561723 0.5166684
-7040.047 -2494.8 -23341.99 0.03621607 0.95685416 0.28830293
-7038.757 -2497.943 -23331.72 -0.017324025 0.99595046 -0.08821859
-7036.799 -2497.026 -23321.75 -0.120822296 0.836211 -0.5349329
-7034.834 -2491.177 -23313.05 -0.1260494 0.72567517 -0.6763928
-7033.244 -2482.949 -23304.52 -0.0697085 0.783924 -0.616931
-7032.146 -2475.203 -23294.8 -0.0658708 0.86314327 -0.5006443
-7030.675 -2468.605 -23283.62 -0.07816574 0.9309712 -0.35662684
-7027.942 -2463.599 -23271.15 -0.03598767 0.9924339 -0.11738772
-7023.978 -2461.926 -23258.22 0.08297271 0.97306716 0.21507154
-7019.221 -2465.057 -23245.89 0.19874996 0.8538665 0.48105142
-7014.833 -2472.062 -23235.27 0.25594294 0.68598634 0.6811138
-7011.74 -2481.388 -23227.04 0.25494233 0.60754085 0.7522623
-7009.283 -2491.396 -23219.79 0.23973472 0.6584113 0.7134577
-7006.676 -2500.754 -23212.03 0.22280759 0.7066507 0.6715665
-7003.942 -2509.447 -23203.79 0.21084943 0.73170704 0.64818776
-7001.21 -2517.674 -23195.39 0.20310429 0.77509403 0.5983125
-6998.253 -2525.173 -23186.68 0.19128342 0.8407903 0.50644106
-6994.771 -2531.518 -23177.46 0.16222532 0.9162184 0.36636963
-6990.542 -2536.086 -23167.91 0.09067311 0.98095757 0.17175764
-6985.463 -2538.24 -23158.29 -0.0358002 0.9975777 -0.059640057
-6979.839 -2537.478 -23148.92 -0.19035728 0.93726736 -0.29205146
-6974.09 -2533.562 -23140.1 -0.29931092 0.8376197 -0.45695326
-6968.719 -2527.17 -23131.9 -0.3476305 0.7464833 -0.567376
-6964.05 -2519.203 -23124.28 -0.36068612 0.70656985 -0.6088222
-6959.631 -2510.52 -23116.82 -0.35998413 0.7226226 -0.5901086
-6954.915 -2501.858 -23109.09 -0.36022338 0.7532667 -0.5502984
-6949.672 -2493.499 -23101.08 -0.36151838 0.7840781 -0.50450563
-6943.788 -2485.503 -23092.87 -0.3789316 0.7941571 -0.47510555
-6937.272 -2477.506 -23084.7 -0.40478516 0.7936088 -0.45424005
-6930.162 -2469.313 -23076.72 -0.37921786 0.83246344 -0.4039783
-6922.482 -2461.844 -23068.54 -0.294588 0.9022097 -0.31501678
-6914.272 -2456.098 -23059.76 -0.19863656 0.9570162 -0.211337
-6905.635 -2452.276 -23050.57 -0.101605415 0.9892153 -0.10549603
-6896.696 -2450.368 -23041.29 -0.0025138836 0.9999937 -0.0025199489
-6887.589 -2450.322 -23032.16 0.08806308 0.99256843 0.08398093
-6878.393 -2451.88 -23023.39 0.12275008 0.9863385 0.10985783
-6868.974 -2453.991 -23014.96 0.10786948 0.9901085 0.08971834
-6859.175 -2455.797 -23006.81 0.13433926 0.98557955 0.10288779
-6848.951 -2458.008 -22998.98 0.22086515 0.9627421 0.15603285
-6838.448 -2461.62 -22991.56 0.34539574 0.9081504 0.23656872
-6828.462 -2467.2 -22984.72 0.47786948 0.81364053 0.33110383
-6819.656 -2474.855 -22978.62 0.5334661 0.7611811 0.368805
-6811.528 -2483.274 -22973.0 0.51976943 0.78167635 0.34470528
-6803.385 -2491.07 -22967.6 0.4825032 0.82296365 0.2998692
-6794.89 -2497.974 -22962.32 0.42931116 0.8693124 0.24492411
-6785.828 -2503.906 -22957.15 0.33740735 0.924298 0.17840828
-6776.143 -2508.43 -22952.03 0.21403393 0.971008 0.10645634
-6765.89 -2511.249 -22946.93 0.13321215 0.9890624 0.06332497
-6755.413 -2512.979 -22941.95 0.09540111 0.99446726 0.04397184
-6745.044 -2514.185 -22937.17 0.008446767 0.9999576 0.00365969
-6734.775 -2514.288 -22932.72 -0.14123364 0.9884192 -0.055504136
-6724.542 -2512.6 -22928.7 -0.2879536 0.95204645 -0.10339357
-6714.408 -2509.14 -22925.06 -0.4043239 0.90461963 -0.13485372
-6704.424 -2504.181 -22921.73 -0.46781978 0.8712196 -0.14873162
-6694.484 -2498.304 -22918.57 -0.48825854 0.8594011 -0.15176758
-6684.443 -2492.048 -22915.45 -0.49958286 0.8529717 -0.15118298
-6674.168 -2485.479 -22912.34 -0.50636244 0.84986675 -0.14602622
-6663.555 -2478.63 -22909.28 -0.49333307 0.8598651 -0.13135633
-6652.589 -2471.892 -22906.36 -0.4598863 0.88119054 -0.1095801
-6641.302 -2465.667 -22903.67 -0.4209887 0.9023667 -0.092210785
-6629.799 -2460.043 -22901.15 -0.38537374 0.9193493 -0.07927022
-6618.177 -2454.965 -22898.76 -0.37167588 0.92592883 -0.0671778
-6606.452 -2450.105 -22896.64 -0.37238136 0.9264278 -0.055349633
-6594.613 -2445.241 -22894.88 -0.33910322 0.9394432 -0.049553372
-6582.637 -2440.826 -22893.13 -0.26111656 0.9642452 -0.045269556
-6570.459 -2437.429 -22891.02 -0.15383302 0.9877196 -0.02730134
-6557.891 -2435.41 -22888.79 -0.024481256 0.99969316 -0.0037806914
-6544.814 -2435.082 -22886.77 0.12505893 0.9920264 0.015618587
-6531.521 -2436.784 -22885.11 0.2932597 0.95562506 0.027917983
-6518.493 -2440.818 -22883.87 0.47515133 0.8788897 0.042239137
-6506.585 -2447.307 -22882.81 0.6437068 0.76210946 0.06950318
-6496.401 -2456.009 -22881.71 0.7041617 0.7038895 0.09325162
-6487.183 -2465.392 -22880.49 0.6633232 0.7424252 0.09384637
-6477.92 -2473.834 -22879.18 0.557116 0.82790744 0.064738475
-6467.936 -2480.643 -22878.02 0.40916997 0.9119537 0.030339655
-6456.873 -2485.634 -22877.2 0.3322675 0.94298255 0.019547626
-6445.32 -2489.719 -22876.52 0.33461788 0.9420901 0.022295441
-6433.917 -2493.787 -22875.76 0.3136365 0.94928575 0.022107251
-6422.584 -2497.55 -22874.96 0.24807511 0.9686119 0.01580177
-6411.116 -2500.499 -22874.23 0.1643533 0.98635834 0.009224228
-6399.528 -2502.436 -22873.58 0.06988867 0.9975493 0.0033087565
-6387.894 -2503.253 -22873.03 -0.029362882 0.99956805 -0.0012384614
-6376.271 -2502.911 -22872.54 -0.12726937 0.9918565 -0.0048368922
-6364.708 -2501.425 -22872.1 -0.20931315 0.9778244 -0.006886294
-6353.191 -2498.957 -22871.72 -0.2722138 0.962212 -0.0069085085
-6341.724 -2495.711 -22871.43 -0.31864014 0.94784963 -0.007048769
-6330.423 -2491.91 -22871.18 -0.3587855 0.9333788 -0.0087683005
-6319.394 -2487.668 -22870.91 -0.41967335 0.90759003 -0.012433081
-6308.582 -2482.664 -22870.59 -0.48918375 0.8719889 -0.018289745
-6297.873 -2476.648 -22870.19 -0.51696813 0.8557895 -0.019186832
-6287.085 -2470.122 -22869.79 -0.5145255 0.85731876 -0.01637844
-6276.102 -2463.524 -22869.44 -0.5488697 0.8357353 -0.016988184
-6265.122 -2456.306 -22869.1 -0.60331076 0.79723257 -0.02089015
-6254.179 -2448.015 -22868.72 -0.57971567 0.81474745 -0.010787628
-6242.319 -2439.573 -22868.5 -0.45933276 0.88825786 0.0033643504
-6228.719 -2432.54 -22868.6 -0.19299154 0.98119444 0.003420103
-6214.061 -2429.656 -22868.86 0.21874109 0.9757758 -0.0037362948
-6199.425 -2432.938 -22869.11 0.48170447 0.87632614 -0.0036480806
-6186.014 -2440.31 -22869.21 0.61560535 0.7880121 0.00818504
-6174.703 -2449.148 -22869.06 0.69949406 0.71411693 0.02729528
-6164.943 -2458.723 -22868.68 0.73601115 0.67533016 0.04708315
-6155.875 -2468.646 -22868.1 0.71496004 0.6967131 0.05850585
-6146.829 -2477.991 -22867.36 0.6341945 0.7711519 0.05587617
-6137.297 -2485.891 -22866.52 0.5317215 0.84581065 0.043319535
-6127.228 -2492.263 -22865.7 0.40453225 0.9142095 0.023974488
-6116.616 -2496.975 -22865.07 0.16714458 0.98592967 0.0023409806
-6105.181 -2498.914 -22864.91 -0.1266048 0.9919431 0.0044914787
-6092.794 -2497.331 -22865.35 -0.26313916 0.96470773 0.009835071
-6080.2 -2493.891 -22865.82 -0.27815738 0.9605354 4.501293E-4
-6068.131 -2490.396 -22865.84 -0.29602498 0.9551592 0.0063318205
-6056.443 -2486.772 -22866.09 -0.33494774 0.941793 0.028912289
-6044.858 -2482.621 -22867.09 -0.3662628 0.9304007 0.01435468
-6033.396 -2478.102 -22867.54 -0.37729535 0.925161 -0.041537102
-6021.953 -2473.379 -22866.28 -0.390147 0.91902083 -0.056445077
-6009.722 -2468.078 -22864.51 -0.37765834 0.9256938 -0.021568893
-5996.077 -2462.493 -22863.73 0.14198413 0.9880158 0.06054332
-5981.722 -2464.931 -22857.61 0.17837282 0.9822791 0.05754099
-5973.512 -2466.577 -22854.96 0.17837282 0.9822791 0.05754099
