-815.2098 -791.6542 -17834.45 -0.5140955 0.81303674 -0.27327105
-808.8411 -787.9836 -17837.27 -0.3565309 0.9099373 -0.21189602
-800.862 -785.0081 -17835.62 -0.1566662 0.9796509 -0.125458
-795.0033 -783.9966 -17829.99 -0.061893575 0.9949578 -0.07891863
-789.6821 -782.8555 -17821.59 -0.01955407 0.9996429 -0.01821495
-785.6889 -782.6605 -17811.83 0.011388186 0.998123 0.060173295
-783.6537 -783.9658 -17802.33 0.011307632 0.99945956 -0.030866314
-783.0554 -784.0007 -17793.23 0.012695158 0.9526389 -0.30383843
-783.2199 -779.6161 -17784.35 0.03425725 0.8906147 -0.45346656
-783.9703 -774.9808 -17775.65 0.052784625 0.90598476 -0.42000645
-785.2335 -770.7428 -17767.08 0.049561277 0.95290995 -0.29917604
-786.8722 -768.1763 -17758.5 0.019634303 0.9940155 -0.10745985
-788.7579 -767.4238 -17749.77 -0.031222459 0.99252987 0.117939055
-790.8957 -768.9807 -17740.85 -0.08469559 0.94634396 0.311865
-793.3188 -772.9512 -17731.72 -0.11021878 0.9175007 0.38215742
-796.0367 -777.5228 -17722.5 -0.09294436 0.9483255 0.30338103
-799.036 -780.8228 -17713.29 -0.047321904 0.988379 0.14445621
-802.2199 -781.4525 -17704.23 -0.021052293 0.99794275 0.060556103
-805.42 -782.0471 -17695.4 -0.013030726 0.99930614 0.03489151
-808.2835 -782.6387 -17686.75 0.009379884 0.9983673 -0.05634452
-810.4586 -781.7658 -17678.2 0.021891726 0.988248 -0.15128317
-811.7829 -780.2123 -17669.65 0.010379805 0.9842905 -0.17625125
-812.1387 -778.5378 -17661.07 -0.004274284 0.9906985 -0.13600773
-811.3951 -777.3708 -17652.52 -0.008419678 0.99792045 -0.06390536
-809.4755 -777.1013 -17644.05 -0.012932995 0.9991588 -0.03891612
-806.5261 -776.8699 -17635.45 -0.033631273 0.9961603 -0.080830336
-802.7453 -775.8104 -17626.53 -0.055268332 0.9911609 -0.120604716
-798.3196 -774.2784 -17617.41 -0.0557852 0.9918765 -0.11431996
-793.5383 -772.9067 -17608.27 -0.032807786 0.9972858 -0.065914795
-789.1118 -772.2133 -17599.37 -6.7110563E-4 0.9999681 0.007957563
-785.7228 -772.4945 -17590.87 0.017022543 0.997339 0.07088818
-783.5267 -773.272 -17582.57 0.014851397 0.99294364 0.11765343
-782.4999 -774.1744 -17574.23 0.001409166 0.97997105 0.19913498
-782.4327 -776.0302 -17565.69 -0.019071214 0.96082544 0.2764974
-783.121 -779.2328 -17556.93 -0.020608805 0.9813826 0.1909541
-784.5682 -781.1342 -17548.2 0.031061685 0.99653167 -0.077199645
-786.8069 -779.5739 -17539.73 0.102458924 0.94879675 -0.2988093
-789.7309 -775.8719 -17531.3 0.13038446 0.9338006 -0.33319125
-793.207 -771.9816 -17522.67 0.08774435 0.97409385 -0.2084276
-797.1806 -769.8144 -17513.81 -0.015912008 0.9997092 0.018119436
-801.6204 -770.6589 -17504.83 -0.13367842 0.96413517 0.22928889
-806.5032 -774.0583 -17496.11 -0.21716237 0.91793585 0.3320156
-811.7895 -778.8469 -17488.06 -0.22148399 0.9282551 0.29880977
-817.3798 -782.7708 -17480.87 -0.12159989 0.98124415 0.14957723
-823.2457 -783.9841 -17474.56 0.0031645796 0.9999924 0.0023010033
-829.6804 -783.3636 -17468.65 0.021470534 0.9995874 -0.01907883
-836.9812 -782.694 -17462.45 -0.08699032 0.99234056 0.08770889
-845.1697 -784.6686 -17454.95 -0.24637927 0.9279019 0.27981272
-851.8129 -787.3583 -17451.85 -0.45444742 0.6644187 0.5933173
-855.1293 -790.4857 -17452.24 -0.5059379 0.5332304 0.6780061
