-927.613525 2537.219971 -3334.493896 0.222133 0.933478 -0.281559
-883.614929 2510.324951 -3387.410889 0.116951 0.948452 -0.294552
-849.919128 2490.386963 -3439.165039 0.033437 0.957302 -0.287151
-825.985229 2474.521973 -3491.066895 -0.031913 0.956364 -0.290429
-810.897278 2459.579102 -3543.847900 -0.078972 0.949694 -0.303059
-803.600708 2443.243896 -3598.583008 -0.106062 0.943708 -0.313315
-803.218811 2424.490967 -3656.509033 -0.140792 0.936398 -0.321461
-809.874817 2403.160889 -3716.645996 -0.211559 0.927388 -0.308535
-825.643921 2380.705078 -3774.646973 -0.287032 0.922007 -0.259837
-850.939575 2358.803955 -3826.267090 -0.374840 0.916361 -0.140631
-887.297180 2338.669922 -3867.077881 -0.396429 0.917067 0.042805
-935.906372 2320.785889 -3892.849121 -0.296329 0.935314 0.193333
-998.371887 2305.360107 -3899.711914 -0.153873 0.966057 0.207501
-1071.102051 2293.459961 -3886.525879 -0.063260 0.983316 0.170554
-1145.173950 2285.019043 -3856.843994 0.002930 0.986072 0.166294
-1211.479004 2279.020996 -3813.561035 0.087571 0.980637 0.175166
-1260.843018 2275.253906 -3759.969971 0.224430 0.959941 0.167765
-1284.359009 2273.063965 -3699.940918 0.360091 0.930866 0.061839
-1275.859009 2271.680908 -3637.163086 0.307985 0.948954 -0.068055
-1239.217041 2269.428955 -3575.736084 0.232824 0.967353 -0.100107
-1181.927979 2264.409912 -3521.770996 0.235214 0.964920 -0.116631
-1111.816040 2254.625000 -3481.521973 0.289958 0.939050 -0.184684
-1036.953003 2238.252930 -3461.231934 0.327368 0.881630 -0.339938
-965.289612 2213.683105 -3466.470947 0.256529 0.837981 -0.481644
-901.205627 2180.268066 -3499.737061 0.215670 0.878676 -0.425929
-841.229492 2141.947021 -3553.607910 0.231142 0.899105 -0.371730
-782.961426 2100.782959 -3618.778076 0.263189 0.901937 -0.342407
-726.021179 2058.599121 -3686.360107 0.335097 0.899783 -0.279464
-668.511719 2018.223022 -3747.018066 0.431455 0.890670 -0.143365
-607.119873 1981.963013 -3790.354004 0.443744 0.896151 0.002269
-541.203674 1950.777954 -3814.521973 0.388830 0.919167 0.062795
-471.846405 1923.270996 -3824.832031 0.340501 0.938026 0.064554
-400.577393 1898.140991 -3826.530029 0.321704 0.946377 0.029621
-329.219299 1874.129028 -3825.111084 0.333174 0.941750 -0.045851
-259.696411 1849.697021 -3826.271973 0.358469 0.919318 -0.162341
-194.006500 1822.942017 -3835.207031 0.367523 0.898519 -0.239981
-132.833405 1793.764038 -3852.877930 0.362392 0.889489 -0.278355
-75.948868 1763.163940 -3877.947998 0.346154 0.887079 -0.305398
-23.097050 1732.073975 -3909.141113 0.322658 0.890055 -0.322015
25.955481 1701.370972 -3945.241943 0.293492 0.899014 -0.325017
71.538567 1672.140991 -3985.125000 0.256356 0.911695 -0.321084
113.817001 1645.270020 -4028.050049 0.213313 0.921585 -0.324312
152.457199 1620.355957 -4073.886963 0.170186 0.927746 -0.332150
186.983902 1596.755981 -4122.608887 0.127869 0.930532 -0.343162
216.903503 1573.824951 -4174.187988 0.085455 0.930266 -0.356795
241.708298 1550.918945 -4228.578125 0.041949 0.927314 -0.371927
260.879089 1527.394043 -4285.726074 -0.002867 0.922627 -0.385683
273.796906 1502.918945 -4345.042969 -0.053018 0.917042 -0.395251
279.676392 1477.708008 -4405.040039 -0.114641 0.910476 -0.397354
277.714905 1452.021973 -4464.120117 -0.189368 0.904010 -0.383283
267.036011 1426.227051 -4520.666992 -0.273110 0.898959 -0.342466
246.747803 1400.718018 -4572.964844 -0.352646 0.895266 -0.272286
216.424805 1375.520996 -4619.142090 -0.412214 0.892717 -0.182034
176.907104 1350.465942 -4657.118164 -0.453936 0.887963 -0.073924
130.083603 1325.270996 -4684.476074 -0.467813 0.882199 0.053622
77.882622 1299.614014 -4699.019043 -0.434434 0.881620 0.184427
21.941389 1273.277954 -4698.736816 -0.350233 0.893933 0.279680
-36.768349 1246.412964 -4681.753906 -0.251366 0.914076 0.318244
-97.378860 1219.047974 -4646.479004 -0.182743 0.927287 0.326717
-155.621597 1190.894043 -4595.683105 -0.123709 0.926553 0.355239
-205.444504 1161.758057 -4534.394043 -0.038796 0.911337 0.409828
-240.913803 1131.473999 -4467.881836 0.117070 0.877092 0.465837
-256.178497 1099.890991 -4401.573242 0.362351 0.827238 0.429393
-245.628693 1066.887939 -4341.054199 0.522715 0.818662 0.237828
-207.539200 1032.431030 -4290.324219 0.496513 0.863184 0.091584
-148.374298 997.329224 -4251.067871 0.449125 0.893464 0.002903
-76.161743 962.721191 -4225.217773 0.413073 0.907269 -0.078949
0.801536 929.806580 -4214.567871 0.371690 0.909873 -0.184331
74.129967 899.689575 -4220.669922 0.282354 0.901687 -0.327471
135.487503 873.173828 -4245.062988 0.118437 0.899071 -0.421478
180.481903 850.366577 -4286.517090 -0.026555 0.913934 -0.404992
209.081299 829.958374 -4340.040039 -0.125928 0.923753 -0.361694
221.576096 810.104187 -4400.273926 -0.213337 0.919251 -0.330855
218.295502 788.919312 -4461.953125 -0.321174 0.897245 -0.302982
199.589096 764.503296 -4519.829102 -0.420409 0.871219 -0.253444
166.617096 735.889404 -4569.749023 -0.399736 0.885935 -0.235222
124.189796 705.752380 -4613.709961 -0.307554 0.916187 -0.256927
79.056313 678.498291 -4656.063965 -0.165779 0.952672 -0.254819
38.355900 658.893616 -4701.809082 0.044433 0.983905 -0.173082
9.445621 651.570679 -4756.737793 0.178715 0.983027 0.041467
-0.075623 661.309814 -4826.747070 0.033023 0.991358 0.126957
