-4506.077 -2417.493 -22730.0 -0.17653492 0.9842937 -0.0011499561
-4467.368 -2411.486 -22730.0 -0.29148132 0.9565758 -0.0011499561
-4429.979 -2399.993 -22730.0 -0.49715352 0.86766243 4.793763E-4
-4397.263 -2378.613 -22730.0 -0.67453736 0.7382245 0.004889618
-4370.019 -2350.513 -22730.1 -0.7697922 0.6381838 0.011888252
-4345.712 -2319.78 -22730.46 -0.8195979 0.5725185 0.021953676
-4323.902 -2287.228 -22731.06 -0.8495111 0.5265866 0.03220851
-4303.591 -2253.722 -22731.85 -0.86813223 0.49463478 0.041023094
-4284.462 -2219.527 -22732.77 -0.8803983 0.4716498 0.049451463
-4266.139 -2184.898 -22733.81 -0.8884107 0.455313 0.058450576
-4248.437 -2149.948 -22734.97 -0.89510494 0.44036728 0.06974053
-4231.293 -2114.73 -22736.32 -0.90048486 0.4263014 0.08598967
-4214.764 -2079.229 -22737.9 -0.90481293 0.41273767 0.104695335
-4198.84 -2043.465 -22739.77 -0.90826565 0.39988154 0.12307858
-4183.462 -2007.479 -22741.92 -0.908921 0.3916684 0.14303301
-4168.306 -1971.421 -22744.41 -0.90692794 0.38669237 0.16718468
-4153.404 -1935.285 -22747.28 -0.90582436 0.37722212 0.19283588
-4138.984 -1898.979 -22750.45 -0.90691763 0.36216056 0.21526748
-4125.353 -1862.384 -22753.77 -0.9066828 0.35092607 0.23404542
-4112.212 -1825.621 -22757.24 -0.9029045 0.349762 0.24985984
-4099.067 -1788.882 -22760.89 -0.89818364 0.35329223 0.26163098
-4085.978 -1752.133 -22764.73 -0.8935649 0.3598118 0.268472
-4072.406 -1715.599 -22768.79 -0.887797 0.37201425 0.27096468
-4058.616 -1679.151 -22773.1 -0.8788814 0.39299554 0.2704109
-4043.586 -1643.277 -22777.72 -0.8637565 0.42515025 0.27050316
-4027.737 -1607.779 -22782.89 -0.83624 0.47741994 0.2697646
-4009.502 -1573.608 -22788.59 -0.7854847 0.56167626 0.25987238
-3988.862 -1541.032 -22795.67 -0.6668129 0.70997435 0.22648829
-3962.43 -1513.723 -22804.14 -0.42767945 0.89181644 0.14749137
-3928.661 -1498.52 -22816.65 -0.14900832 0.9875502 0.050409008
-3890.902 -1495.879 -22825.69 0.003546027 0.99998564 0.00402675
-3851.805 -1497.93 -22825.12 0.012558892 0.99991983 -0.0016306075
-3813.575 -1497.841 -22816.91 -0.027989773 0.99953175 -0.012366759
-3777.234 -1496.943 -22802.29 -0.09838879 0.9940574 -0.04657854
-3742.308 -1492.565 -22785.13 -0.23170438 0.967391 -0.102311864
-3708.323 -1481.836 -22769.03 -0.40640932 0.90115935 -0.15080898
-3675.981 -1463.58 -22756.67 -0.570008 0.80489916 -0.16500983
-3646.615 -1438.92 -22748.88 -0.67681247 0.7204829 -0.15109369
-3619.693 -1411.042 -22743.09 -0.73212814 0.66841984 -0.13116159
-3594.331 -1381.479 -22738.8 -0.7630962 0.63671684 -0.11079626
-3569.795 -1351.135 -22735.15 -0.78718156 0.6107909 -0.085321344
-3545.987 -1320.102 -22732.74 -0.8083923 0.58594126 -0.05634452
-3523.319 -1288.159 -22731.36 -0.8245642 0.5648833 -0.031634122
-3501.345 -1255.715 -22730.67 -0.8356138 0.54909784 -0.015530741
-3479.904 -1222.907 -22730.36 -0.84153724 0.54014194 -0.007860881
-3458.771 -1189.9 -22730.2 -0.8456717 0.53368187 -0.0047944044
-3437.771 -1156.808 -22730.09 -0.84797335 0.53003263 -0.0025880944
-3416.785 -1123.706 -22730.03 -0.8468555 0.53182155 -0.0012462771
-3395.858 -1090.567 -22730.0 -0.84685576 0.5318217 -9.582677E-4
-3374.922 -1057.434 -22730.0 -0.8509607 0.5252292 -2.8831162E-4
-3354.329 -1024.087 -22730.0 -0.8542671 0.5198341 3.8350103E-4
-3333.851 -990.6683 -22730.0 -0.85426694 0.519834 7.67002E-4
-3313.368 -957.2532 -22730.0 -0.85456586 0.5193426 6.711269E-4
-3292.866 -923.8502 -22730.0 -0.8552623 0.5181951 4.793763E-4
-3272.361 -890.4475 -22730.0 -0.856106 0.51680034 0.0
-3251.964 -856.9816 -22730.0 -0.8566008 0.51597923 -5.7584443E-4
-3231.756 -823.3966 -22730.0 -0.85326886 0.52147126 -9.566942E-5
-3211.37 -789.9272 -22730.0 -0.8385465 0.5448301 1.917506E-4
-3190.021 -757.0662 -22730.0 -0.8117554 0.5839975 -1.915137E-4
-3166.226 -725.9213 -22730.0 -0.7894743 0.6137834 -4.8000016E-4
-3142.404 -694.8068 -22730.0 -0.7507306 0.66060853 -1.9151371E-4
-3116.374 -665.5347 -22730.0 -0.66657954 0.74543387 -9.566942E-5
-3086.467 -640.2589 -22730.0 -0.5741686 0.8187371 0.0
-3053.507 -619.0665 -22730.0 -0.5263913 0.85024226 4.793763E-4
-3020.0 -598.7419 -22730.0 -0.52214587 0.8528559 6.711269E-4
