-4506.077 -2417.493 -22750.0 -0.15347445 0.9881526 0.0
-4467.273 -2411.466 -22750.0 -0.29458502 0.95562524 0.0
-4429.802 -2399.915 -22750.0 -0.5487784 0.8359679 0.0
-4397.052 -2378.416 -22750.0 -0.72094357 0.69298875 0.0026412457
-4369.863 -2350.13 -22750.1 -0.7882787 0.6151993 0.012106533
-4345.7 -2319.162 -22750.47 -0.83389276 0.5514433 0.02308952
-4324.045 -2286.39 -22751.07 -0.85723746 0.51385504 0.033117518
-4303.873 -2252.688 -22751.85 -0.87386346 0.48428845 0.04274796
-4284.868 -2218.313 -22752.78 -0.8840713 0.46461558 0.050500758
-4266.644 -2183.523 -22753.82 -0.89227474 0.44768947 0.058480524
-4249.092 -2148.39 -22754.97 -0.8993159 0.4314468 0.07130704
-4232.194 -2112.946 -22756.31 -0.9056329 0.41478375 0.0882241
-4215.974 -2077.196 -22757.89 -0.9106838 0.398825 0.10767381
-4200.413 -2041.167 -22759.73 -0.9136447 0.3854662 0.12910973
-4185.417 -2004.913 -22761.85 -0.91210234 0.38068414 0.15214789
-4170.664 -1968.582 -22764.31 -0.91024333 0.3742877 0.17710382
-4156.229 -1932.148 -22767.12 -0.9088953 0.36475107 0.20215298
-4142.24 -1895.566 -22770.23 -0.9108631 0.34682402 0.22369954
-4129.007 -1858.715 -22773.48 -0.9088662 0.3402255 0.24126516
-4116.087 -1821.769 -22776.91 -0.90527785 0.34121096 0.25307518
-4103.176 -1784.837 -22780.52 -0.9002099 0.34612927 0.26422864
-4090.127 -1747.976 -22784.35 -0.89436275 0.3565785 0.27012408
-4076.715 -1711.268 -22788.4 -0.8861399 0.37219205 0.2760964
-4062.755 -1674.804 -22792.75 -0.8756587 0.3991282 0.2718797
-4047.777 -1638.776 -22797.4 -0.85771024 0.4329621 0.27726683
-4031.597 -1603.373 -22802.63 -0.83073926 0.4906654 0.26290658
-4013.212 -1569.128 -22808.45 -0.7766967 0.5720519 0.2636265
-3991.967 -1536.96 -22815.66 -0.6401101 0.73929065 0.20906565
-3964.471 -1510.613 -22824.64 -0.3155323 0.94179326 0.116037756
-3929.939 -1497.479 -22837.34 -0.03799515 0.99924326 0.008327969
-3891.747 -1495.957 -22845.71 0.047288906 0.99888116 4.596964E-4
-3852.568 -1497.812 -22845.33 0.0030798987 0.9999951 5.9239106E-4
-3814.042 -1497.935 -22837.92 -0.014738118 0.99987644 -0.0054565496
-3777.225 -1497.318 -22824.29 -0.0731568 0.9966969 -0.035261855
-3741.98 -1494.13 -22807.3 -0.2095867 0.9725027 -0.101547316
-3707.655 -1484.996 -22790.67 -0.4163343 0.8932479 -0.16962883
-3675.235 -1467.377 -22777.46 -0.60692924 0.7764367 -0.16965514
-3645.896 -1442.651 -22769.26 -0.6980836 0.69922984 -0.15413243
-3619.084 -1414.578 -22763.34 -0.7481832 0.6507397 -0.12945937
-3593.89 -1384.744 -22758.98 -0.7701046 0.6272239 -0.11631442
-3569.527 -1354.149 -22755.3 -0.7981919 0.59638005 -0.08497364
-3546.227 -1322.611 -22752.82 -0.8201221 0.5698423 -0.051763415
-3523.885 -1290.328 -22751.41 -0.8326185 0.55315757 -0.02762512
-3502.163 -1257.596 -22750.69 -0.8392367 0.54362065 -0.012587351
-3480.807 -1224.619 -22750.37 -0.8428948 0.5380414 -0.006308204
-3459.668 -1191.501 -22750.21 -0.8447397 0.5351589 -0.0044727395
-3438.642 -1158.311 -22750.1 -0.8449939 0.5347685 -0.0028277412
-3417.631 -1125.111 -22750.03 -0.84586537 0.53339523 -0.0011824772
-3396.674 -1091.877 -22750.0 -0.8454424 0.5340666 0.0
-3375.691 -1058.66 -22750.0 -0.85063887 0.5257505 0.0
-3355.034 -1025.238 -22750.0 -0.8526689 0.52245176 0.0
-3334.507 -991.7371 -22750.0 -0.8525599 0.52262944 0.0
-3313.973 -958.2399 -22750.0 -0.8522766 0.5230913 0.0
-3293.421 -924.7544 -22750.0 -0.85223955 0.5231517 0.0
-3272.866 -891.2694 -22750.0 -0.8537953 0.52060896 0.0
-3252.412 -857.7252 -22750.0 -0.8568777 0.5155197 0.0
-3232.156 -824.0563 -22750.0 -0.85407823 0.5201446 0.0
-3211.722 -790.5035 -22750.0 -0.8391788 0.54385567 0.0
-3190.357 -757.5369 -22750.0 -0.79496074 0.60666084 0.0
-3166.521 -726.3026 -22750.0 -0.7940447 0.60785943 0.0
-3142.642 -695.1097 -22750.0 -0.7480107 0.6636867 0.0
-3116.581 -665.7375 -22750.0 -0.6462024 0.76316607 0.0
-3086.624 -640.3717 -22750.0 -0.541109 0.8409524 0.0
-3053.59 -619.1161 -22750.0 -0.5186103 0.85501075 0.0
-3020.0 -598.7419 -22750.0 -0.5186103 0.85501075 0.0
