-1853.649 -285.4986 -17069.1 0.15644477 0.98078704 -0.11654162
-1833.285 -290.5494 -17084.27 0.25833791 0.9486049 -0.18278472
-1764.666 -318.5919 -17132.82 0.31528774 0.9333993 -0.17134582
-1725.18 -335.8689 -17154.28 0.36254895 0.91903394 -0.15470879
-1686.065 -354.1092 -17170.97 0.46258473 0.8811632 -0.09780966
-1649.227 -374.3126 -17178.76 0.5202826 0.8538251 0.01698966
-1614.656 -395.4011 -17177.63 0.5115348 0.85517895 0.08367276
-1579.563 -416.954 -17171.89 0.4931792 0.8632165 0.10784981
-1543.802 -438.3623 -17164.07 0.49392405 0.861974 0.11419242
-1508.633 -459.5918 -17155.94 0.5016983 0.8605381 0.08816377
-1473.523 -480.6933 -17149.77 0.5029648 0.86321974 0.043337155
-1437.776 -501.6763 -17146.69 0.499395 0.86625195 0.014561183
-1401.805 -522.4312 -17145.64 0.44514614 0.89543897 -0.005821039
-1365.212 -540.6257 -17146.12 0.2793955 0.9599895 -0.018929396
-1326.525 -551.9368 -17148.74 0.06241917 0.9980234 -0.007286345
-1286.436 -554.4783 -17153.42 -0.16481602 0.9860223 0.024407934
-1247.134 -547.7648 -17159.24 -0.29584238 0.95424724 0.04346947
-1207.868 -535.3284 -17165.01 -0.27532595 0.9609594 0.027436523
-1167.532 -523.6569 -17169.03 -0.1891696 0.9819154 0.007550395
-1125.938 -515.6309 -17170.69 -0.08113695 0.9967019 -0.0014388262
-1083.094 -512.1421 -17169.93 0.03355264 0.99943244 0.0030130784
-1040.661 -513.5781 -17166.12 0.13683721 0.9902853 0.02471185
-1000.018 -519.3773 -17158.78 0.17777444 0.9830931 0.04386621
-959.6577 -527.1201 -17148.82 0.21539095 0.97306323 0.08218697
-921.1041 -536.8966 -17134.11 0.27662033 0.92856455 0.24748524
-893.0955 -551.9191 -17109.05 0.1431535 0.90182185 0.40770644
-881.3289 -568.9373 -17075.54 -0.05797272 0.9501948 0.30621734
-888.2028 -581.0578 -17039.23 -0.15745576 0.9642096 0.2133248
-912.1393 -592.1415 -17006.8 -0.3681618 0.9102672 0.1893955
-946.2179 -609.5724 -16989.27 -0.55513656 0.8194306 -0.14267768
-974.4265 -629.9451 -16996.52 -0.18173678 0.89150673 -0.4149549
-988.1481 -647.325 -17027.85 -0.034780044 0.9552502 -0.29374722
-993.0511 -660.2375 -17069.26 0.0054155523 0.9801436 -0.19821493
-991.9869 -668.1205 -17108.21 0.020347938 0.9927008 -0.11887413
-985.2684 -672.9583 -17147.46 0.008132243 0.9995965 -0.027218344
-973.4433 -674.1322 -17187.04 -0.055459164 0.98977226 0.13143496
-957.9366 -668.3832 -17223.79 -0.08919258 0.9735605 0.21029636
-942.1668 -658.9069 -17260.97 -0.029599478 0.9913745 0.12767361
-932.6271 -653.3228 -17302.12 -0.007655339 0.99732465 0.072697416
-928.2442 -650.2553 -17343.74 -0.007655339 0.99732465 0.072697416
