-1902.446 1513.648 -15690.78 -0.0076608798 0.9998472 0.01571515
-1882.045 1514.462 -15732.63 0.012917745 0.99818087 -0.05889036
-1865.078 1509.679 -15809.98 0.0840831 0.9751756 -0.20484732
-1837.733 1493.327 -15876.6 0.30013612 0.9030943 -0.30714673
-1798.313 1466.506 -15916.94 0.3831119 0.8850664 -0.26435348
-1752.778 1437.411 -15948.36 0.3405114 0.90758955 -0.24562821
-1705.659 1410.534 -15982.35 0.30019873 0.9275423 -0.22258927
-1657.107 1386.181 -16018.35 0.28007686 0.93698615 -0.20883921
-1608.29 1363.476 -16054.75 0.26131362 0.9422892 -0.20929979
-1561.333 1342.1 -16092.36 0.21958268 0.9506001 -0.21941496
-1518.821 1322.475 -16134.84 0.15975043 0.96155334 -0.22337201
-1482.926 1304.852 -16185.03 0.11546143 0.9671906 -0.22629847
-1454.313 1288.315 -16241.11 0.087362364 0.96577346 -0.24423228
-1433.248 1271.517 -16300.0 0.061955813 0.9563684 -0.2855189
-1420.3 1252.864 -16359.67 0.023521515 0.93639314 -0.35016367
-1416.308 1230.54 -16419.1 -0.040336072 0.9090618 -0.41470423
-1421.963 1203.766 -16477.24 -0.12015037 0.89263105 -0.43448097
-1437.286 1174.733 -16532.65 -0.19575481 0.8926589 -0.4060051
-1462.03 1145.965 -16583.97 -0.2562404 0.89553326 -0.36381468
-1494.921 1117.582 -16630.67 -0.31790543 0.8835469 -0.34392008
-1533.439 1087.503 -16672.34 -0.39026162 0.8568142 -0.33699447
-1575.256 1054.254 -16708.45 -0.45297265 0.8357418 -0.31040522
-1619.736 1018.825 -16738.93 -0.49532953 0.8277264 -0.2636621
-1666.761 982.7108 -16763.96 -0.5190523 0.8289615 -0.20834486
-1716.159 946.7969 -16783.79 -0.52953714 0.8341953 -0.15397628
-1767.611 911.3743 -16798.75 -0.5295067 0.8421126 -0.10231788
-1820.757 876.7092 -16809.02 -0.5210879 0.8521187 -0.048592336
-1875.234 843.1057 -16814.1 -0.50229514 0.8646703 0.0067060413
-1930.679 810.8915 -16813.36 -0.4704495 0.88003194 0.06496978
-1986.288 780.5969 -16805.68 -0.41820866 0.8999138 0.12351815
-2040.937 752.985 -16789.54 -0.3444132 0.923682 0.16790222
-2093.593 728.685 -16763.87 -0.26929367 0.9443059 0.18912226
-2142.718 707.7662 -16729.37 -0.2002784 0.9605054 0.19317828
-2186.531 690.1312 -16687.11 -0.14647064 0.9707169 0.19040763
-2224.116 674.8762 -16638.25 -0.11284774 0.973919 0.19684312
-2255.079 660.3724 -16584.24 -0.09058681 0.9713057 0.21990724
-2278.819 645.1105 -16526.61 -0.06609776 0.9641994 0.2568083
-2294.244 628.0912 -16466.68 -0.02964033 0.95228267 0.30377474
-2300.191 608.4635 -16405.73 0.025944896 0.9362298 0.3504291
-2295.742 585.8483 -16345.64 0.10490921 0.91743517 0.3838057
-2280.222 560.3202 -16288.86 0.20360453 0.89816296 0.3896774
-2253.496 532.0696 -16237.71 0.30185857 0.88122004 0.36377552
-2217.251 501.6226 -16194.03 0.39164835 0.8665772 0.30928224
-2173.588 469.583 -16159.55 0.45986223 0.8563439 0.234951
-2124.597 436.4071 -16134.52 0.5015058 0.85017693 0.16028462
-2072.253 402.3762 -16117.79 0.52626926 0.845511 0.09028696
-2018.336 367.8291 -16108.54 0.5356966 0.8442728 0.015253612
-1963.908 333.2661 -16106.99 0.52660435 0.84769887 -0.063987926
-1909.844 299.1848 -16113.56 0.49896076 0.8564471 -0.13242565
-1856.601 265.9808 -16127.69 0.4615917 0.86899954 -0.17824975
-1804.162 233.9728 -16147.94 0.42044812 0.88198227 -0.21291006
-1753.115 203.3982 -16173.79 0.36604187 0.8908808 -0.26896966
-1706.94 174.1821 -16207.72 0.27606478 0.9008597 -0.33502233
-1670.024 146.2087 -16252.52 0.16381405 0.91309863 -0.37338418
-1646.122 119.6424 -16307.0 0.047451116 0.9250891 -0.37677383
-1638.636 95.04929 -16366.44 -0.06207115 0.9378099 -0.34155485
-1649.409 72.74609 -16425.72 -0.13517903 0.9488397 -0.28535908
-1675.629 52.36446 -16481.07 -0.18152347 0.9556359 -0.23196837
-1713.527 33.41004 -16529.5 -0.20010114 0.9597231 -0.19720829
-1757.451 15.35669 -16572.79 -0.1917792 0.96122026 -0.19818264
-1800.602 -2.446496 -16617.38 -0.15843675 0.96233916 -0.22090983
-1837.0 -20.08887 -16668.13 -0.106063135 0.9700992 -0.21830776
-1864.304 -35.72095 -16724.33 -0.049592156 0.9833962 -0.17456393
-1881.304 -47.2005 -16784.17 -0.016476575 0.9924549 -0.12149825
-1889.781 -54.9938 -16846.68 -0.0075403983 0.99404025 -0.108752824
-1894.24 -62.06351 -16910.99 -0.007630044 0.99139905 -0.13065074
-1898.036 -70.6587 -16975.99 -0.0027629435 0.99028397 -0.1390322
-1899.318 -79.71921 -17040.5 0.0078209825 0.9925469 -0.121612355
-1895.26 -87.4825 -17103.6 0.0096098 0.9949881 -0.09953057
-1889.237 -93.78075 -17165.98 -0.002266989 0.995305 -0.0967615
-1890.728 -99.97096 -17229.62 -0.028515223 0.99389154 -0.10661412
-1907.937 -107.3666 -17293.96 -0.08054925 0.9889415 -0.12452486
-1942.795 -116.9913 -17347.85 -0.17973442 0.9781821 -0.10418902
-1994.79 -129.7554 -17377.99 -0.2554321 0.9668264 -0.001103979
-2054.893 -145.6347 -17378.25 -0.22857368 0.9654449 0.12518033
-2106.33 -161.4652 -17350.08 -0.118594445 0.9705558 0.20965879
-2135.574 -176.2066 -17298.38 -0.012193242 0.9766491 0.21449432
-2139.099 -189.8698 -17236.37 0.08162689 0.97820824 0.19090746
-2115.155 -202.7968 -17180.37 0.1387755 0.98289144 0.121102124
-2068.241 -214.4648 -17139.43 0.13682349 0.9892046 0.052474823
-2008.846 -223.8885 -17116.65 0.10661327 0.9942293 0.011900938
-1977.754 -227.2641 -17113.18 0.09893231 0.99508446 -0.004396783
-1946.903 -230.3374 -17114.55 0.14968963 0.9876095 -0.04712324
-1888.968 -239.9887 -17132.79 0.21630515 0.9612546 -0.17088488
-1841.12 -257.4756 -17170.59 0.26753885 0.9041844 -0.33297682
-1803.308 -285.9944 -17217.65 0.4190201 0.78092366 -0.46322817
-1769.097 -326.7852 -17255.47 0.7690363 0.57916486 -0.27046472
-1734.521 -378.3752 -17267.63 0.774029 0.5607241 0.29405376
-1701.196 -431.0165 -17254.97 0.47116277 0.7321025 0.49196702
-1668.95 -474.3952 -17221.3 0.22102515 0.9165938 0.33317223
-1637.265 -499.3965 -17173.54 -0.012765161 0.9997201 -0.019920083
-1605.552 -498.0055 -17124.05 -0.3241096 0.8587145 -0.39694133
-1572.507 -466.8255 -17083.58 -0.6269529 0.67069733 -0.39635232
-1536.663 -419.9282 -17060.92 -0.70746046 0.6981397 0.11000297
-1494.219 -375.8777 -17067.52 -0.30342424 0.9212274 0.24346223
-1448.43 -351.0865 -17104.26 0.03947156 0.99829704 -0.04295337
-1404.872 -354.8482 -17151.66 0.3743743 0.8380589 -0.39686418
-1367.054 -390.7267 -17191.75 0.6375469 0.6015919 -0.48127043
-1334.187 -445.4063 -17216.56 0.87375814 0.46696872 -0.13596633
-1304.114 -503.0393 -17221.24 0.8268027 0.46516913 0.31625155
-1277.0 -558.2833 -17210.87 0.75486636 0.48837712 0.43779504
-1249.311 -615.4765 -17194.81 0.75486636 0.48837712 0.43779504
