8332.0 -230.9927 -10404.01 -0.085 0.996 0.000
8351.624 -229.7065 -10401.51 -0.172 0.985 0.000
8370.911 -225.8699 -10399.01 -0.299 0.954 0.000
8389.533 -219.5485 -10396.51 -0.421 0.907 0.000
8407.171 -210.8506 -10394.01 -0.536 0.844 0.000
8423.522 -199.9249 -10391.51 -0.642 0.767 0.000
8438.309 -186.9583 -10389.01 -0.736 0.677 0.000
8451.274 -172.1729 -10386.51 -0.818 0.575 0.000
8462.2 -155.8214 -10384.01 -0.886 0.463 0.000
8470.898 -138.1837 -10381.51 -0.939 0.343 0.000
8477.22 -119.5616 -10379.01 -0.976 0.218 0.000
8481.057 -100.2737 -10376.51 -0.995 0.098 0.000
8482.343 -80.65005 -10374.01 -1.000 0.011 0.000
8482.343 69.34995 -10362.01 -0.998 -0.064 0.000
8481.057 88.97354 -10359.51 -0.985 -0.172 0.000
8477.22 108.2614 -10357.01 -0.954 -0.299 0.000
8470.898 126.8835 -10354.51 -0.907 -0.421 0.000
8462.2 144.5211 -10352.01 -0.844 -0.536 0.000
8451.274 160.8726 -10349.51 -0.767 -0.642 0.000
8438.309 175.6581 -10347.01 -0.677 -0.736 0.000
8423.522 188.6246 -10344.51 -0.575 -0.818 0.000
8407.172 199.5503 -10342.01 -0.463 -0.886 0.000
8389.533 208.2483 -10339.51 -0.343 -0.939 0.000
8370.911 214.5696 -10337.01 -0.218 -0.976 0.000
8351.624 218.4062 -10334.51 -0.088 -0.996 0.000
8332.0 219.6924 -10332.01 0.042 -0.999 -0.001
8312.376 218.4062 -10329.51 0.172 -0.985 -0.001
8293.088 214.5696 -10327.01 0.299 -0.954 -0.001
8274.466 208.2483 -10324.51 0.421 -0.907 -0.001
8256.828 199.5503 -10322.01 0.536 -0.844 -0.001
8240.478 188.6246 -10319.51 0.642 -0.767 -0.001
8225.691 175.6581 -10317.01 0.736 -0.677 -0.001
8212.726 160.8726 -10314.51 0.818 -0.575 -0.001
8201.8 144.5211 -10312.01 0.886 -0.463 -0.001
8193.102 126.8835 -10309.51 0.939 -0.343 -0.001
8186.78 108.2614 -10307.01 0.976 -0.218 -0.001
8182.944 88.97354 -10304.51 0.996 -0.088 -0.001
8181.657 69.34998 -10302.01 0.999 0.042 -0.001
8182.944 49.72635 -10299.51 0.985 0.172 -0.001
8186.78 30.43848 -10297.01 0.954 0.300 -0.001
8193.102 11.81636 -10294.51 0.907 0.421 -0.001
8201.8 -5.82132 -10292.01 0.844 0.536 -0.001
8212.726 -22.17279 -10289.51 0.767 0.642 -0.001
8225.691 -36.9583 -10287.01 0.676 0.736 -0.001
8240.478 -49.92482 -10284.51 0.575 0.818 -0.001
8256.829 -60.85054 -10282.01 0.463 0.887 -0.001
8274.466 -69.54848 -10279.51 0.343 0.939 -0.001
8293.089 -75.86983 -10277.01 0.217 0.976 -0.001
8312.376 -79.70642 -10274.51 0.108 0.994 -0.001
8332.0 -80.99263 -10272.01 0.108 0.994 -0.001
