-3945.0 -2062.0 -4647.5 -0.029 1.000 0.000
-3835.421 -2061.217 -4644.0 -0.127 0.992 0.000
-3806.177 -2056.889 -4640.5 -0.282 0.959 0.000
-3787.597 -2050.582 -4637.0 -0.420 0.907 0.000
-3770.0 -2041.904 -4633.5 -0.535 0.845 0.000
-3753.686 -2031.003 -4630.0 -0.641 0.768 0.000
-3738.934 -2018.066 -4626.5 -0.736 0.677 0.000
-3725.997 -2003.314 -4623.0 -0.818 0.575 0.000
-3715.096 -1987.0 -4619.5 -0.886 0.464 0.000
-3706.418 -1969.403 -4616.0 -0.939 0.344 0.000
-3700.111 -1950.823 -4612.5 -0.976 0.219 0.000
-3696.283 -1931.579 -4609.0 -0.995 0.098 0.000
-3695.0 -1912.0 -4605.5 -1.000 0.021 0.000
-3695.0 -1812.0 -4605.5 -1.000 -0.000 0.000
-3695.0 -1712.0 -4605.5 -1.000 -0.011 0.000
-3695.0 -1612.0 -4605.5 -0.998 -0.063 0.000
-3696.283 -1592.421 -4602.0 -0.985 -0.172 0.000
-3700.111 -1573.177 -4598.5 -0.954 -0.299 0.000
-3706.418 -1554.598 -4595.0 -0.907 -0.421 0.000
-3715.096 -1537.0 -4591.5 -0.844 -0.536 0.000
-3725.997 -1520.686 -4588.0 -0.767 -0.641 0.000
-3738.934 -1505.934 -4584.5 -0.677 -0.736 0.000
-3753.686 -1492.997 -4581.0 -0.575 -0.818 0.000
-3770.0 -1482.096 -4577.5 -0.463 -0.886 0.000
-3787.597 -1473.418 -4574.0 -0.344 -0.939 0.000
-3806.177 -1467.111 -4570.5 -0.218 -0.976 0.000
-3825.421 -1463.283 -4567.0 -0.098 -0.995 0.000
-3845.0 -1462.0 -4563.5 -0.021 -1.000 0.000
-3945.0 -1462.0 -4548.5 0.011 -1.000 0.000
-4045.0 -1462.0 -4533.5 0.064 -0.998 0.000
-4064.579 -1463.283 -4530.0 0.172 -0.985 0.000
-4083.823 -1467.111 -4526.5 0.299 -0.954 0.000
-4102.402 -1473.418 -4523.0 0.421 -0.907 0.000
-4120.0 -1482.096 -4519.5 0.536 -0.844 0.000
-4136.314 -1492.997 -4516.0 0.642 -0.767 0.000
-4151.066 -1505.934 -4512.5 0.736 -0.677 0.000
-4164.003 -1520.686 -4509.0 0.818 -0.575 0.000
-4174.904 -1537.0 -4505.5 0.886 -0.463 0.000
-4183.582 -1554.597 -4502.0 0.939 -0.343 0.000
-4189.889 -1573.177 -4498.5 0.976 -0.218 0.000
-4193.717 -1592.421 -4495.0 0.996 -0.088 0.000
-4195.0 -1612.0 -4491.5 0.999 0.042 0.000
-4193.717 -1631.579 -4488.0 0.985 0.172 0.000
-4189.889 -1650.823 -4484.5 0.954 0.300 0.000
-4183.582 -1669.402 -4481.0 0.907 0.422 0.000
-4174.904 -1687.0 -4477.5 0.844 0.536 0.000
-4164.003 -1703.314 -4474.0 0.767 0.642 0.000
-4151.066 -1718.066 -4470.5 0.676 0.737 0.000
-4136.314 -1731.003 -4467.0 0.574 0.819 0.000
-4120.0 -1741.904 -4463.5 0.463 0.887 0.000
-4102.403 -1750.582 -4460.0 0.343 0.939 0.000
-4083.823 -1756.889 -4456.5 0.217 0.976 0.000
-4064.579 -1760.717 -4453.0 0.107 0.994 0.000
-4045.0 -1762.0 -4449.5 0.107 0.994 0.000
