-9974.5 -7114.0 -15045.0 0.006 0.974 -0.227
-9972.723 -7119.42 -15067.99 0.006 0.975 -0.222
-9970.651 -7124.705 -15090.94 -0.001 0.977 -0.213
-9967.988 -7129.715 -15113.86 -0.012 0.980 -0.199
-9964.498 -7134.315 -15136.75 -0.027 0.983 -0.182
-9960.185 -7138.387 -15159.61 -0.044 0.986 -0.160
-9955.112 -7141.815 -15182.4 -0.063 0.989 -0.136
-9949.353 -7144.491 -15205.14 -0.085 0.990 -0.108
-9943.011 -7146.336 -15227.8 -0.114 0.990 -0.080
-9936.198 -7147.278 -15250.37 -0.155 0.987 -0.053
-9929.033 -7147.251 -15272.85 -0.207 0.978 -0.029
-9921.641 -7146.218 -15295.24 -0.267 0.964 -0.006
-9914.154 -7144.148 -15317.51 -0.332 0.943 0.014
-9906.701 -7141.019 -15339.67 -0.399 0.916 0.034
-9899.411 -7136.846 -15361.71 -0.471 0.881 0.051
-9892.41 -7131.651 -15383.63 -0.549 0.833 0.062
-9885.822 -7125.463 -15405.41 -0.631 0.773 0.070
-9879.767 -7118.335 -15427.06 -0.707 0.703 0.076
-9874.355 -7110.324 -15448.56 -0.771 0.632 0.084
-9869.7 -7101.493 -15469.92 -0.821 0.563 0.097
-9865.884 -7091.933 -15491.13 -0.860 0.498 0.114
-9862.986 -7081.74 -15512.19 -0.891 0.434 0.133
-9861.081 -7071.013 -15533.1 -0.917 0.369 0.151
-9860.217 -7059.86 -15553.84 -0.938 0.301 0.169
-9860.44 -7048.391 -15574.43 -0.955 0.232 0.186
-9861.788 -7036.718 -15594.86 -0.967 0.158 0.201
-9864.272 -7024.955 -15615.13 -0.974 0.077 0.212
-9867.898 -7013.215 -15635.24 -0.976 -0.015 0.215
-9872.666 -7001.613 -15655.19 -0.970 -0.117 0.213
-9878.561 -6990.259 -15674.98 -0.953 -0.219 0.208
-9885.562 -6979.262 -15694.61 -0.927 -0.313 0.207
-9893.654 -6968.739 -15714.07 -0.894 -0.395 0.213
-9902.834 -6958.846 -15733.36 -0.854 -0.468 0.226
-9913.099 -6949.743 -15752.46 -0.808 -0.536 0.246
-9924.464 -6941.624 -15771.35 -0.750 -0.602 0.274
-9937.009 -6934.806 -15789.88 -0.677 -0.666 0.313
-9950.827 -6929.635 -15807.87 -0.589 -0.724 0.358
-9965.964 -6926.4 -15825.19 -0.491 -0.773 0.402
-9982.249 -6925.16 -15841.7 -0.386 -0.811 0.440
-9999.465 -6925.915 -15857.32 -0.280 -0.838 0.468
-10017.36 -6928.644 -15872.01 -0.174 -0.857 0.484
-10035.56 -6933.244 -15885.96 -0.070 -0.872 0.484
-10053.65 -6939.594 -15899.42 0.039 -0.883 0.468
-10071.25 -6947.604 -15912.61 0.157 -0.883 0.442
-10088.0 -6957.325 -15925.63 0.279 -0.865 0.417
-10103.56 -6968.844 -15938.54 0.395 -0.827 0.399
-10117.67 -6982.18 -15951.4 0.497 -0.776 0.389
-10130.25 -6997.089 -15964.23 0.581 -0.718 0.383
-10141.3 -7013.262 -15977.03 0.653 -0.656 0.378
-10150.79 -7030.416 -15989.81 0.717 -0.588 0.374
-10158.54 -7048.386 -16002.59 0.775 -0.510 0.373
-10164.34 -7067.036 -16015.35 0.826 -0.423 0.374
-10168.02 -7086.212 -16028.1 0.868 -0.330 0.372
-10169.62 -7105.698 -16040.85 0.902 -0.232 0.364
-10169.21 -7125.262 -16053.59 0.930 -0.126 0.345
-10166.84 -7144.68 -16066.34 0.948 -0.012 0.317
-10162.57 -7163.759 -16079.09 0.952 0.104 0.288
-10156.4 -7182.315 -16091.86 0.939 0.216 0.266
-10148.38 -7200.167 -16104.64 0.914 0.318 0.254
-10138.61 -7217.148 -16117.43 0.878 0.409 0.250
-10127.22 -7233.092 -16130.23 0.833 0.493 0.250
-10114.33 -7247.839 -16143.04 0.781 0.572 0.251
-10100.05 -7261.242 -16155.84 0.721 0.645 0.253
-10084.53 -7273.153 -16168.65 0.654 0.712 0.255
-10067.88 -7283.453 -16181.46 0.581 0.774 0.253
-10050.29 -7292.118 -16194.27 0.502 0.830 0.243
-10031.95 -7299.151 -16207.06 0.412 0.883 0.223
-10013.04 -7304.507 -16219.85 0.308 0.931 0.197
-9993.747 -7307.945 -16232.63 0.190 0.966 0.174
-9974.26 -7309.18 -16245.41 0.065 0.985 0.160
-9954.767 -7308.021 -16258.19 -0.050 0.987 0.152
-9935.457 -7304.655 -16270.96 -0.155 0.977 0.147
-9916.523 -7299.366 -16283.75 -0.251 0.958 0.140
-9898.154 -7292.388 -16296.55 -0.343 0.930 0.133
-9880.537 -7283.771 -16309.35 -0.434 0.892 0.127
-9863.858 -7273.513 -16322.16 -0.523 0.844 0.122
-9848.294 -7261.64 -16334.97 -0.607 0.786 0.117
-9833.979 -7248.271 -16347.78 -0.685 0.720 0.112
-9821.039 -7233.554 -16360.58 -0.755 0.647 0.105
-9809.597 -7217.634 -16373.38 -0.820 0.564 0.095
-9799.771 -7200.674 -16386.17 -0.879 0.471 0.077
-9791.675 -7182.836 -16398.95 -0.931 0.363 0.047
-9785.414 -7164.287 -16411.71 -0.970 0.243 0.006
-9781.038 -7145.207 -16424.46 -0.992 0.117 -0.035
-9778.583 -7125.777 -16437.2 -0.997 -0.006 -0.071
-9778.093 -7106.191 -16449.94 -0.988 -0.123 -0.093
-9779.63 -7086.672 -16462.69 -0.966 -0.236 -0.105
-9783.264 -7067.457 -16475.44 -0.932 -0.344 -0.111
-9789.015 -7048.761 -16488.2 -0.888 -0.445 -0.118
-9796.722 -7030.739 -16500.97 -0.834 -0.536 -0.129
-9806.175 -7013.529 -16513.76 -0.772 -0.620 -0.141
-9817.198 -6997.296 -16526.56 -0.697 -0.700 -0.156
-9829.754 -6982.317 -16539.38 -0.605 -0.777 -0.173
-9843.838 -6968.897 -16552.22 -0.492 -0.847 -0.200
-9859.39 -6957.277 -16565.12 -0.367 -0.900 -0.236
-9876.13 -6947.449 -16578.12 -0.239 -0.931 -0.278
-9893.724 -6939.34 -16591.29 -0.118 -0.943 -0.311
-9911.822 -6932.91 -16604.73 -0.004 -0.945 -0.328
-9930.03 -6928.244 -16618.65 0.108 -0.938 -0.328
-9947.939 -6925.459 -16633.32 0.221 -0.924 -0.313
-9965.175 -6924.652 -16648.92 0.335 -0.898 -0.286
-9981.485 -6925.843 -16665.42 0.444 -0.860 -0.251
-9996.652 -6929.032 -16682.71 0.546 -0.811 -0.212
-10010.51 -6934.162 -16700.7 0.634 -0.753 -0.176
-10023.09 -6940.941 -16719.21 0.708 -0.690 -0.149
-10034.5 -6949.026 -16738.09 0.770 -0.625 -0.131
-10044.82 -6958.098 -16757.19 0.823 -0.555 -0.120
-10054.06 -6967.965 -16776.47 0.872 -0.476 -0.118
-10062.22 -6978.462 -16795.92 0.915 -0.383 -0.125
-10069.32 -6989.437 -16815.54 0.951 -0.277 -0.137
-10075.31 -7000.773 -16835.31 0.975 -0.165 -0.149
-10080.17 -7012.363 -16855.25 0.986 -0.059 -0.155
-10083.87 -7024.101 -16875.35 0.988 0.034 -0.152
-10086.42 -7035.869 -16895.61 0.983 0.118 -0.142
-10087.82 -7047.553 -16916.03 0.972 0.196 -0.130
-10088.1 -7059.037 -16936.61 0.955 0.272 -0.116
-10087.29 -7070.208 -16957.35 0.933 0.346 -0.102
-10085.44 -7080.957 -16978.25 0.904 0.419 -0.088
-10082.59 -7091.176 -16999.3 0.868 0.491 -0.075
-10078.83 -7100.77 -17020.5 0.821 0.567 -0.066
-10074.24 -7109.649 -17041.85 0.759 0.648 -0.061
-10068.89 -7117.726 -17063.34 0.681 0.730 -0.060
-10062.91 -7124.93 -17084.97 0.592 0.803 -0.059
-10056.38 -7131.191 -17106.74 0.504 0.862 -0.053
-10049.42 -7136.451 -17128.65 0.425 0.904 -0.039
-10042.17 -7140.679 -17150.68 0.359 0.933 -0.019
-10034.74 -7143.855 -17172.82 0.306 0.952 0.005
-10027.27 -7145.966 -17195.08 0.266 0.963 0.035
-10019.89 -7147.034 -17217.45 0.234 0.970 0.065
-10012.74 -7147.088 -17239.91 0.207 0.974 0.096
-10005.94 -7146.168 -17262.46 0.183 0.975 0.124
-9999.604 -7144.341 -17285.1 0.158 0.976 0.149
-9993.854 -7141.684 -17307.8 0.131 0.977 0.171
-9988.789 -7138.278 -17330.57 0.104 0.976 0.189
-9984.483 -7134.23 -17353.4 0.078 0.976 0.204
-9980.999 -7129.652 -17376.27 0.055 0.975 0.216
-9978.341 -7124.662 -17399.17 0.035 0.974 0.225
-9976.272 -7119.394 -17422.1 0.018 0.973 0.229
-9974.5 -7114.0 -17445.0 0.018 0.973 0.229
