-739.6674 -3979.9 -22498.25 0.095 0.995 -0.029
-766.7184 -3977.987 -22498.3 0.205 0.978 -0.035
-791.4584 -3972.187 -22498.6 0.373 0.927 -0.044
-814.4279 -3962.056 -22499.36 0.540 0.840 -0.051
-834.6942 -3948.48 -22500.6 0.701 0.711 -0.056
-851.1579 -3930.682 -22502.06 0.825 0.562 -0.058
-864.8076 -3909.001 -22503.79 0.900 0.431 -0.059
-875.7482 -3884.815 -22506.02 0.949 0.310 -0.056
-883.6625 -3859.44 -22509.03 0.982 0.184 -0.047
-888.063 -3833.427 -22513.37 0.998 0.058 -0.028
-889.0865 -3807.09 -22519.81 0.998 -0.060 0.001
-887.1142 -3781.594 -22528.79 0.983 -0.176 0.044
-881.6345 -3758.03 -22540.88 0.954 -0.281 0.101
-873.1937 -3736.85 -22555.9 0.911 -0.375 0.171
-862.3597 -3718.952 -22572.46 0.847 -0.463 0.262
-848.4453 -3705.456 -22590.4 0.769 -0.529 0.359
-832.0587 -3696.257 -22609.9 0.695 -0.565 0.444
-814.1075 -3691.533 -22630.52 0.630 -0.580 0.517
-795.5677 -3691.011 -22651.65 0.567 -0.579 0.586
-777.3983 -3694.711 -22672.36 0.496 -0.556 0.667
-760.3197 -3703.289 -22691.58 0.415 -0.503 0.758
-744.9131 -3716.922 -22708.36 0.336 -0.417 0.845
-731.537 -3735.551 -22721.93 0.273 -0.318 0.908
-720.346 -3758.373 -22732.45 0.231 -0.232 0.945
-711.6336 -3784.17 -22740.36 0.203 -0.164 0.965
-704.8038 -3811.551 -22746.04 0.183 -0.105 0.978
-699.4287 -3839.738 -22749.77 0.165 -0.048 0.985
-695.3342 -3868.319 -22751.58 0.149 0.010 0.989
-692.3402 -3896.996 -22751.48 0.135 0.071 0.988
-690.0747 -3925.561 -22749.45 0.122 0.134 0.983
-688.2343 -3953.854 -22745.52 0.110 0.201 0.973
-686.6957 -3981.699 -22739.62 0.098 0.274 0.957
-685.3817 -4008.491 -22731.9 0.085 0.369 0.925
-684.2921 -4033.293 -22721.73 0.071 0.502 0.862
-683.4217 -4054.593 -22709.3 0.057 0.677 0.734
-682.7623 -4070.8 -22693.08 0.042 0.836 0.547
-682.3189 -4082.766 -22672.45 0.031 0.930 0.366
-682.0843 -4091.188 -22648.28 0.023 0.974 0.224
-682.0211 -4096.452 -22621.84 0.017 0.993 0.117
-682.0841 -4099.102 -22593.89 0.011 0.999 0.047
-682.212 -4099.979 -22564.73 0.006 1.000 0.010
-682.5001 -4100.0 -22290.0 0.006 1.000 0.010
