-2614.667 -4139.9 -19428.25 0.095 0.995 -0.029
-2641.719 -4137.987 -19428.3 0.205 0.978 -0.035
-2666.458 -4132.187 -19428.6 0.373 0.927 -0.044
-2689.428 -4122.056 -19429.36 0.540 0.840 -0.051
-2709.694 -4108.48 -19430.6 0.701 0.711 -0.056
-2726.158 -4090.682 -19432.06 0.825 0.562 -0.058
-2739.808 -4069.001 -19433.79 0.900 0.431 -0.059
-2750.748 -4044.815 -19436.02 0.949 0.310 -0.056
-2758.663 -4019.44 -19439.03 0.982 0.184 -0.047
-2763.063 -3993.427 -19443.37 0.998 0.058 -0.028
-2764.087 -3967.09 -19449.81 0.998 -0.060 0.001
-2762.114 -3941.594 -19458.79 0.983 -0.176 0.044
-2756.635 -3918.03 -19470.88 0.954 -0.281 0.101
-2748.194 -3896.85 -19485.9 0.911 -0.375 0.171
-2737.36 -3878.952 -19502.46 0.847 -0.463 0.262
-2723.445 -3865.456 -19520.4 0.769 -0.529 0.359
-2707.059 -3856.257 -19539.9 0.695 -0.565 0.444
-2689.108 -3851.533 -19560.52 0.630 -0.580 0.517
-2670.568 -3851.011 -19581.65 0.567 -0.579 0.586
-2652.398 -3854.711 -19602.36 0.496 -0.556 0.667
-2635.32 -3863.289 -19621.58 0.415 -0.503 0.758
-2619.913 -3876.922 -19638.36 0.336 -0.417 0.845
-2606.537 -3895.551 -19651.93 0.273 -0.318 0.908
-2595.346 -3918.373 -19662.45 0.231 -0.232 0.945
-2586.634 -3944.17 -19670.36 0.203 -0.164 0.965
-2579.804 -3971.551 -19676.04 0.183 -0.105 0.978
-2574.429 -3999.738 -19679.77 0.165 -0.048 0.985
-2570.334 -4028.319 -19681.58 0.149 0.010 0.989
-2567.34 -4056.996 -19681.48 0.135 0.071 0.988
-2565.075 -4085.561 -19679.45 0.122 0.134 0.983
-2563.234 -4113.854 -19675.52 0.110 0.201 0.973
-2561.696 -4141.699 -19669.62 0.098 0.274 0.957
-2560.382 -4168.491 -19661.9 0.085 0.369 0.925
-2559.292 -4193.293 -19651.73 0.071 0.502 0.862
-2558.422 -4214.593 -19639.3 0.057 0.677 0.734
-2557.762 -4230.8 -19623.08 0.042 0.836 0.547
-2557.319 -4242.766 -19602.45 0.031 0.930 0.366
-2557.084 -4251.188 -19578.28 0.023 0.974 0.224
-2557.021 -4256.452 -19551.84 0.017 0.993 0.117
-2557.084 -4259.102 -19523.89 0.011 0.999 0.047
-2557.212 -4259.979 -19494.73 0.006 1.000 0.010
-2557.5 -4260.0 -19220.0 0.006 1.000 0.010
