-2614.666992 -4139.899902 -19428.250000 0.095000 0.995000 -0.029000
-2641.718994 -4137.986816 -19428.300781 0.205000 0.978000 -0.035000
-2666.458008 -4132.187012 -19428.599609 0.373000 0.927000 -0.044000
-2689.427979 -4122.056152 -19429.359375 0.540000 0.840000 -0.051000
-2709.694092 -4108.479980 -19430.599609 0.701000 0.711000 -0.056000
-2726.157959 -4090.681885 -19432.060547 0.825000 0.562000 -0.058000
-2739.808105 -4069.000977 -19433.789063 0.900000 0.431000 -0.059000
-2750.748047 -4044.814941 -19436.019531 0.949000 0.310000 -0.056000
-2758.663086 -4019.439941 -19439.029297 0.982000 0.184000 -0.047000
-2763.062988 -3993.427002 -19443.369141 0.998000 0.058000 -0.028000
-2764.086914 -3967.090088 -19449.810547 0.998000 -0.060000 0.001000
-2762.114014 -3941.593994 -19458.789063 0.983000 -0.176000 0.044000
-2756.635010 -3918.030029 -19470.880859 0.954000 -0.281000 0.101000
-2748.194092 -3896.850098 -19485.900391 0.911000 -0.375000 0.171000
-2737.360107 -3878.951904 -19502.460938 0.847000 -0.463000 0.262000
-2723.445068 -3865.456055 -19520.400391 0.769000 -0.529000 0.359000
-2707.059082 -3856.257080 -19539.900391 0.695000 -0.565000 0.444000
-2689.107910 -3851.532959 -19560.519531 0.630000 -0.580000 0.517000
-2670.568115 -3851.010986 -19581.650391 0.567000 -0.579000 0.586000
-2652.397949 -3854.710938 -19602.359375 0.496000 -0.556000 0.667000
-2635.320068 -3863.289063 -19621.580078 0.415000 -0.503000 0.758000
-2619.913086 -3876.922119 -19638.359375 0.336000 -0.417000 0.845000
-2606.537109 -3895.551025 -19651.929688 0.273000 -0.318000 0.908000
-2595.345947 -3918.373047 -19662.449219 0.231000 -0.232000 0.945000
-2586.634033 -3944.169922 -19670.359375 0.203000 -0.164000 0.965000
-2579.803955 -3971.551025 -19676.039063 0.183000 -0.105000 0.978000
-2574.428955 -3999.738037 -19679.769531 0.165000 -0.048000 0.985000
-2570.333984 -4028.319092 -19681.580078 0.149000 0.010000 0.989000
-2567.340088 -4056.996094 -19681.480469 0.135000 0.071000 0.988000
-2565.074951 -4085.561035 -19679.449219 0.122000 0.134000 0.983000
-2563.233887 -4113.854004 -19675.519531 0.110000 0.201000 0.973000
-2561.696045 -4141.699219 -19669.619141 0.098000 0.274000 0.957000
-2560.382080 -4168.491211 -19661.900391 0.085000 0.369000 0.925000
-2559.291992 -4193.292969 -19651.730469 0.071000 0.502000 0.862000
-2558.422119 -4214.592773 -19639.300781 0.057000 0.677000 0.734000
-2557.761963 -4230.799805 -19623.080078 0.042000 0.836000 0.547000
-2557.319092 -4242.766113 -19602.449219 0.031000 0.930000 0.366000
-2557.083984 -4251.187988 -19578.279297 0.023000 0.974000 0.224000
-2557.020996 -4256.452148 -19551.839844 0.017000 0.993000 0.117000
-2557.083984 -4259.102051 -19523.890625 0.011000 0.999000 0.047000
-2557.211914 -4259.979004 -19494.730469 0.006000 1.000000 0.010000
-2557.500000 -4260.000000 -19220.000000 0.006000 1.000000 0.010000
