-2350.0 -1920.0 -6467.5 0.004 1.000 -0.005
-2624.731 -1919.931 -6467.788 0.030 1.000 -0.009
-2653.873 -1919.029 -6467.917 0.089 0.996 -0.015
-2681.795 -1916.355 -6467.98 0.184 0.983 -0.021
-2708.181 -1911.074 -6467.918 0.314 0.949 -0.028
-2732.278 -1902.648 -6467.685 0.482 0.875 -0.038
-2752.812 -1890.709 -6467.246 0.673 0.738 -0.051
-2768.938 -1874.561 -6466.592 0.827 0.558 -0.066
-2781.287 -1853.328 -6465.728 0.910 0.407 -0.080
-2791.387 -1828.586 -6464.645 0.948 0.303 -0.093
-2799.057 -1801.857 -6463.339 0.969 0.223 -0.105
-2804.895 -1774.085 -6461.81 0.981 0.156 -0.117
-2808.774 -1745.889 -6459.981 0.987 0.092 -0.130
-2810.76 -1717.463 -6457.734 0.989 0.030 -0.143
-2810.818 -1688.988 -6454.769 0.987 -0.029 -0.158
-2808.992 -1660.662 -6450.719 0.981 -0.086 -0.175
-2805.268 -1632.772 -6445.41 0.970 -0.144 -0.195
-2799.631 -1605.76 -6438.682 0.953 -0.208 -0.220
-2791.862 -1580.466 -6430.151 0.923 -0.287 -0.255
-2781.619 -1558.234 -6419.255 0.870 -0.383 -0.311
-2768.482 -1540.172 -6406.289 0.790 -0.476 -0.386
-2752.256 -1526.979 -6391.375 0.698 -0.543 -0.467
-2733.608 -1518.659 -6374.8 0.612 -0.575 -0.543
-2713.414 -1515.063 -6357.09 0.540 -0.582 -0.608
-2692.732 -1515.582 -6338.968 0.470 -0.573 -0.671
-2672.578 -1520.2 -6321.434 0.390 -0.545 -0.742
-2653.562 -1529.173 -6305.453 0.297 -0.490 -0.820
-2636.071 -1542.326 -6291.889 0.200 -0.407 -0.891
-2619.887 -1559.823 -6281.318 0.122 -0.314 -0.941
-2605.199 -1580.538 -6273.074 0.063 -0.215 -0.975
-2593.39 -1603.539 -6267.729 0.013 -0.101 -0.995
-2584.608 -1628.498 -6265.814 -0.023 0.018 -1.000
-2578.271 -1654.417 -6266.843 -0.044 0.141 -0.989
-2573.981 -1680.137 -6271.226 -0.056 0.270 -0.961
-2570.994 -1705.339 -6279.129 -0.060 0.393 -0.918
-2568.77 -1729.431 -6290.076 -0.060 0.518 -0.853
-2567.047 -1751.062 -6303.756 -0.058 0.661 -0.748
-2565.592 -1768.821 -6320.275 -0.055 0.802 -0.595
-2564.349 -1782.339 -6340.566 -0.048 0.903 -0.426
-2563.596 -1792.404 -6363.516 -0.040 0.965 -0.260
-2563.301 -1798.15 -6388.243 -0.032 0.992 -0.121
-2563.244 -1800.026 -6415.312 -0.032 0.992 -0.121
