124.261902 -4059.930908 -22501.449219 -0.022000 0.999000 0.043000
161.220001 -4059.656006 -22501.089844 -0.092000 0.994000 0.051000
195.933899 -4056.163086 -22500.539063 -0.218000 0.974000 0.064000
229.028107 -4047.918945 -22499.539063 -0.359000 0.930000 0.075000
260.359100 -4035.075928 -22497.830078 -0.500000 0.862000 0.085000
288.963409 -4017.666992 -22495.119141 -0.634000 0.768000 0.092000
314.229492 -3995.809082 -22491.169922 -0.746000 0.659000 0.095000
336.120514 -3970.007080 -22486.150391 -0.831000 0.548000 0.097000
354.627014 -3941.425049 -22480.470703 -0.897000 0.431000 0.097000
369.056702 -3910.872070 -22474.119141 -0.949000 0.301000 0.095000
378.997192 -3878.902100 -22467.029297 -0.983000 0.160000 0.090000
384.146606 -3846.186035 -22459.179688 -0.997000 0.009000 0.082000
384.190186 -3813.417969 -22450.660156 -0.987000 -0.144000 0.071000
378.980591 -3780.972900 -22441.789063 -0.957000 -0.285000 0.061000
369.115204 -3749.293945 -22432.630859 -0.910000 -0.411000 0.054000
355.063812 -3719.085938 -22423.259766 -0.849000 -0.526000 0.047000
337.237091 -3691.016113 -22413.699219 -0.772000 -0.634000 0.040000
315.925812 -3665.782959 -22403.970703 -0.677000 -0.736000 0.032000
291.443909 -3644.031982 -22394.089844 -0.562000 -0.827000 0.021000
264.136993 -3626.384033 -22384.039063 -0.431000 -0.902000 0.009000
234.475006 -3613.227051 -22373.740234 -0.294000 -0.956000 -0.001000
202.992706 -3604.676025 -22363.199219 -0.159000 -0.987000 -0.011000
170.349304 -3600.522949 -22352.439453 -0.030000 -0.999000 -0.019000
137.301498 -3600.600098 -22341.570313 0.098000 -0.995000 -0.027000
104.718201 -3604.873047 -22330.789063 0.232000 -0.972000 -0.037000
73.436157 -3613.597900 -22320.220703 0.373000 -0.926000 -0.048000
44.050812 -3627.073975 -22309.910156 0.509000 -0.859000 -0.060000
16.881500 -3645.144043 -22299.830078 0.626000 -0.776000 -0.069000
-7.755371 -3667.136963 -22289.970703 0.726000 -0.684000 -0.075000
-29.261900 -3692.318115 -22280.230469 0.812000 -0.578000 -0.081000
-47.051361 -3720.204102 -22270.609375 0.883000 -0.461000 -0.088000
-60.797939 -3750.289063 -22261.150391 0.938000 -0.333000 -0.094000
-70.173897 -3781.992920 -22251.929688 0.976000 -0.195000 -0.100000
-74.903313 -3814.648926 -22243.039063 0.993000 -0.050000 -0.107000
-74.675629 -3847.668945 -22234.580078 0.989000 0.098000 -0.112000
-69.569344 -3880.499023 -22226.789063 0.964000 0.242000 -0.114000
-59.750370 -3912.427979 -22219.679688 0.918000 0.380000 -0.115000
-45.388851 -3942.769043 -22213.259766 0.854000 0.508000 -0.113000
-26.793430 -3970.927979 -22207.449219 0.772000 0.626000 -0.110000
-4.518158 -3996.199951 -22202.210938 0.670000 0.735000 -0.104000
21.121771 -4017.775879 -22198.039063 0.547000 0.832000 -0.095000
49.889339 -4035.145996 -22195.199219 0.411000 0.908000 -0.083000
81.191299 -4048.075928 -22193.400391 0.271000 0.960000 -0.067000
114.181503 -4056.381104 -22192.320313 0.150000 0.987000 -0.053000
148.813202 -4059.863037 -22191.720703 0.150000 0.987000 -0.053000
