-1750.738037 -4219.931152 -19431.449219 -0.022000 0.999000 0.043000
-1713.780029 -4219.655762 -19431.089844 -0.092000 0.994000 0.051000
-1679.066040 -4216.163086 -19430.539063 -0.218000 0.974000 0.064000
-1645.972046 -4207.918945 -19429.539063 -0.359000 0.930000 0.075000
-1614.640991 -4195.076172 -19427.830078 -0.500000 0.862000 0.085000
-1586.036987 -4177.666992 -19425.119141 -0.634000 0.768000 0.092000
-1560.770996 -4155.809082 -19421.169922 -0.746000 0.659000 0.095000
-1538.880005 -4130.006836 -19416.150391 -0.831000 0.548000 0.097000
-1520.373047 -4101.424805 -19410.470703 -0.897000 0.431000 0.097000
-1505.942993 -4070.872070 -19404.119141 -0.949000 0.301000 0.095000
-1496.003052 -4038.902100 -19397.029297 -0.983000 0.160000 0.090000
-1490.854004 -4006.186035 -19389.179688 -0.997000 0.009000 0.082000
-1490.810059 -3973.417969 -19380.660156 -0.987000 -0.144000 0.071000
-1496.020020 -3940.972900 -19371.789063 -0.957000 -0.285000 0.061000
-1505.885010 -3909.293945 -19362.630859 -0.910000 -0.411000 0.054000
-1519.936035 -3879.085938 -19353.259766 -0.849000 -0.526000 0.047000
-1537.762939 -3851.016113 -19343.699219 -0.772000 -0.634000 0.040000
-1559.073975 -3825.782959 -19333.970703 -0.677000 -0.736000 0.032000
-1583.556030 -3804.031982 -19324.089844 -0.562000 -0.827000 0.021000
-1610.863037 -3786.384033 -19314.039063 -0.431000 -0.902000 0.009000
-1640.525024 -3773.227051 -19303.740234 -0.294000 -0.956000 -0.001000
-1672.006958 -3764.676025 -19293.199219 -0.159000 -0.987000 -0.011000
-1704.651001 -3760.522949 -19282.439453 -0.030000 -0.999000 -0.019000
-1737.698975 -3760.600098 -19271.570313 0.098000 -0.995000 -0.027000
-1770.281982 -3764.873047 -19260.789063 0.232000 -0.972000 -0.037000
-1801.563965 -3773.597900 -19250.220703 0.373000 -0.926000 -0.048000
-1830.948975 -3787.073975 -19239.910156 0.509000 -0.859000 -0.060000
-1858.119019 -3805.144043 -19229.830078 0.626000 -0.776000 -0.069000
-1882.755005 -3827.136963 -19219.970703 0.726000 -0.684000 -0.075000
-1904.261963 -3852.318115 -19210.230469 0.812000 -0.578000 -0.081000
-1922.052002 -3880.204102 -19200.609375 0.883000 -0.461000 -0.088000
-1935.797974 -3910.289063 -19191.150391 0.938000 -0.333000 -0.094000
-1945.173950 -3941.992920 -19181.929688 0.976000 -0.195000 -0.100000
-1949.902954 -3974.648926 -19173.039063 0.993000 -0.050000 -0.107000
-1949.676025 -4007.668945 -19164.580078 0.989000 0.098000 -0.112000
-1944.568970 -4040.499023 -19156.789063 0.964000 0.242000 -0.114000
-1934.750000 -4072.427979 -19149.679688 0.918000 0.380000 -0.115000
-1920.389038 -4102.769043 -19143.259766 0.854000 0.508000 -0.113000
-1901.793945 -4130.928223 -19137.449219 0.772000 0.626000 -0.110000
-1879.517944 -4156.200195 -19132.210938 0.670000 0.735000 -0.104000
-1853.878052 -4177.775879 -19128.039063 0.547000 0.832000 -0.095000
-1825.110962 -4195.145996 -19125.199219 0.411000 0.908000 -0.083000
-1793.808960 -4208.076172 -19123.400391 0.271000 0.960000 -0.067000
-1760.818970 -4216.380859 -19122.320313 0.150000 0.987000 -0.053000
-1726.187012 -4219.862793 -19121.720703 0.150000 0.987000 -0.053000
