-2350.000000 -1920.000000 -6467.500000 0.004000 1.000000 -0.005000
-2624.730957 -1919.931030 -6467.788086 0.030000 1.000000 -0.009000
-2653.873047 -1919.029053 -6467.916992 0.089000 0.996000 -0.015000
-2681.794922 -1916.354980 -6467.979980 0.184000 0.983000 -0.021000
-2708.180908 -1911.073975 -6467.917969 0.314000 0.949000 -0.028000
-2732.278076 -1902.647949 -6467.685059 0.482000 0.875000 -0.038000
-2752.812012 -1890.708984 -6467.246094 0.673000 0.738000 -0.051000
-2768.937988 -1874.561035 -6466.591797 0.827000 0.558000 -0.066000
-2781.287109 -1853.328003 -6465.728027 0.910000 0.407000 -0.080000
-2791.386963 -1828.586060 -6464.645020 0.948000 0.303000 -0.093000
-2799.056885 -1801.857056 -6463.338867 0.969000 0.223000 -0.105000
-2804.895020 -1774.084961 -6461.810059 0.981000 0.156000 -0.117000
-2808.773926 -1745.889038 -6459.980957 0.987000 0.092000 -0.130000
-2810.760010 -1717.463013 -6457.733887 0.989000 0.030000 -0.143000
-2810.818115 -1688.988037 -6454.769043 0.987000 -0.029000 -0.158000
-2808.991943 -1660.661987 -6450.719238 0.981000 -0.086000 -0.175000
-2805.268066 -1632.771973 -6445.410156 0.970000 -0.144000 -0.195000
-2799.631104 -1605.760010 -6438.682129 0.953000 -0.208000 -0.220000
-2791.862061 -1580.465942 -6430.150879 0.923000 -0.287000 -0.255000
-2781.618896 -1558.234009 -6419.254883 0.870000 -0.383000 -0.311000
-2768.481934 -1540.171997 -6406.289063 0.790000 -0.476000 -0.386000
-2752.256104 -1526.979004 -6391.375000 0.698000 -0.543000 -0.467000
-2733.607910 -1518.659058 -6374.799805 0.612000 -0.575000 -0.543000
-2713.414063 -1515.062988 -6357.089844 0.540000 -0.582000 -0.608000
-2692.731934 -1515.582031 -6338.967773 0.470000 -0.573000 -0.671000
-2672.577881 -1520.199951 -6321.434082 0.390000 -0.545000 -0.742000
-2653.562012 -1529.172974 -6305.453125 0.297000 -0.490000 -0.820000
-2636.071045 -1542.326050 -6291.889160 0.200000 -0.407000 -0.891000
-2619.886963 -1559.822998 -6281.317871 0.122000 -0.314000 -0.941000
-2605.198975 -1580.537964 -6273.074219 0.063000 -0.215000 -0.975000
-2593.389893 -1603.538940 -6267.729004 0.013000 -0.101000 -0.995000
-2584.607910 -1628.498047 -6265.813965 -0.023000 0.018000 -1.000000
-2578.270996 -1654.416992 -6266.842773 -0.044000 0.141000 -0.989000
-2573.980957 -1680.136963 -6271.226074 -0.056000 0.270000 -0.961000
-2570.993896 -1705.338989 -6279.128906 -0.060000 0.393000 -0.918000
-2568.770020 -1729.431030 -6290.076172 -0.060000 0.518000 -0.853000
-2567.047119 -1751.062012 -6303.755859 -0.058000 0.661000 -0.748000
-2565.592041 -1768.821045 -6320.274902 -0.055000 0.802000 -0.595000
-2564.349121 -1782.338989 -6340.565918 -0.048000 0.903000 -0.426000
-2563.595947 -1792.404053 -6363.516113 -0.040000 0.965000 -0.260000
-2563.301025 -1798.150024 -6388.243164 -0.032000 0.992000 -0.121000
-2563.243896 -1800.026001 -6415.312012 -0.032000 0.992000 -0.121000
