-739.667419 -3979.899902 -22498.250000 0.095000 0.995000 -0.029000
-766.718384 -3977.987061 -22498.300781 0.205000 0.978000 -0.035000
-791.458374 -3972.187012 -22498.599609 0.373000 0.927000 -0.044000
-814.427917 -3962.055908 -22499.359375 0.540000 0.840000 -0.051000
-834.694214 -3948.479980 -22500.599609 0.701000 0.711000 -0.056000
-851.157898 -3930.681885 -22502.060547 0.825000 0.562000 -0.058000
-864.807617 -3909.000977 -22503.789063 0.900000 0.431000 -0.059000
-875.748230 -3884.814941 -22506.019531 0.949000 0.310000 -0.056000
-883.662476 -3859.439941 -22509.029297 0.982000 0.184000 -0.047000
-888.062988 -3833.427002 -22513.369141 0.998000 0.058000 -0.028000
-889.086487 -3807.090088 -22519.810547 0.998000 -0.060000 0.001000
-887.114197 -3781.593994 -22528.789063 0.983000 -0.176000 0.044000
-881.634521 -3758.030029 -22540.880859 0.954000 -0.281000 0.101000
-873.193726 -3736.850098 -22555.900391 0.911000 -0.375000 0.171000
-862.359680 -3718.951904 -22572.460938 0.847000 -0.463000 0.262000
-848.445313 -3705.456055 -22590.400391 0.769000 -0.529000 0.359000
-832.058716 -3696.257080 -22609.900391 0.695000 -0.565000 0.444000
-814.107483 -3691.532959 -22630.519531 0.630000 -0.580000 0.517000
-795.567688 -3691.010986 -22651.650391 0.567000 -0.579000 0.586000
-777.398315 -3694.710938 -22672.359375 0.496000 -0.556000 0.667000
-760.319702 -3703.289063 -22691.580078 0.415000 -0.503000 0.758000
-744.913086 -3716.922119 -22708.359375 0.336000 -0.417000 0.845000
-731.536987 -3735.551025 -22721.929688 0.273000 -0.318000 0.908000
-720.346008 -3758.373047 -22732.449219 0.231000 -0.232000 0.945000
-711.633606 -3784.169922 -22740.359375 0.203000 -0.164000 0.965000
-704.803772 -3811.551025 -22746.039063 0.183000 -0.105000 0.978000
-699.428711 -3839.738037 -22749.769531 0.165000 -0.048000 0.985000
-695.334229 -3868.319092 -22751.580078 0.149000 0.010000 0.989000
-692.340210 -3896.996094 -22751.480469 0.135000 0.071000 0.988000
-690.074707 -3925.561035 -22749.449219 0.122000 0.134000 0.983000
-688.234314 -3953.854004 -22745.519531 0.110000 0.201000 0.973000
-686.695679 -3981.698975 -22739.619141 0.098000 0.274000 0.957000
-685.381714 -4008.490967 -22731.900391 0.085000 0.369000 0.925000
-684.292114 -4033.292969 -22721.730469 0.071000 0.502000 0.862000
-683.421692 -4054.593018 -22709.300781 0.057000 0.677000 0.734000
-682.762329 -4070.800049 -22693.080078 0.042000 0.836000 0.547000
-682.318909 -4082.766113 -22672.449219 0.031000 0.930000 0.366000
-682.084290 -4091.187988 -22648.279297 0.023000 0.974000 0.224000
-682.021118 -4096.452148 -22621.839844 0.017000 0.993000 0.117000
-682.084106 -4099.102051 -22593.890625 0.011000 0.999000 0.047000
-682.211975 -4099.979004 -22564.730469 0.006000 1.000000 0.010000
-682.500122 -4100.000000 -22290.000000 0.006000 1.000000 0.010000
