-3196.0 -1348.0 3020.5 0.000 1.000 0.000
-3146.0 -1348.0 3020.5 0.019 1.000 0.000
-3126.0 -1348.0 3020.5 0.083 0.997 0.001
-3114.491 -1349.452 3020.552 0.130 0.992 0.005
-3103.453 -1350.914 3020.489 0.140 0.990 0.013
-3092.421 -1352.494 3020.191 0.157 0.987 0.027
-3081.348 -1354.272 3019.542 0.181 0.982 0.047
-3070.178 -1356.327 3018.427 0.214 0.974 0.074
-3058.806 -1358.757 3016.723 0.256 0.961 0.107
-3046.887 -1361.757 3014.35 0.305 0.941 0.149
-3033.758 -1365.718 3011.573 0.350 0.915 0.201
-3018.886 -1371.013 3008.826 0.381 0.883 0.273
-3001.759 -1377.916 3006.626 0.389 0.844 0.369
-2981.884 -1386.764 3005.469 0.374 0.791 0.484
-2958.781 -1398.016 3005.735 0.331 0.724 0.605
-2932.177 -1412.122 3007.85 0.259 0.646 0.718
-2903.059 -1429.29 3012.582 0.159 0.568 0.808
-2872.802 -1449.576 3020.757 0.034 0.501 0.865
-2842.75 -1472.976 3033.172 -0.104 0.459 0.882
-2814.173 -1499.461 3050.622 -0.239 0.450 0.860
-2788.268 -1529.0 3073.915 -0.348 0.474 0.809
-2766.024 -1561.28 3103.507 -0.410 0.525 0.746
-2747.76 -1594.925 3138.431 -0.419 0.599 0.683
-2733.787 -1628.325 3177.543 -0.377 0.690 0.617
-2724.602 -1659.83 3219.763 -0.294 0.787 0.542
-2720.762 -1687.735 3264.01 -0.176 0.875 0.452
-2722.842 -1710.23 3309.192 -0.037 0.935 0.353
-2730.828 -1725.956 3354.17 0.105 0.957 0.270
-2742.442 -1735.885 3398.291 0.231 0.950 0.211
-2754.793 -1741.645 3441.144 0.320 0.933 0.164
-2765.016 -1744.892 3482.375 0.360 0.926 0.116
-2770.398 -1747.243 3521.639 0.337 0.938 0.078
-2768.51 -1750.319 3558.928 0.255 0.964 0.082
-2757.849 -1755.694 3595.261 0.134 0.980 0.147
-2740.62 -1763.555 3632.035 -0.006 0.969 0.249
-2720.311 -1773.536 3669.901 -0.169 0.925 0.340
-2700.699 -1785.168 3709.321 -0.352 0.857 0.376
-2685.644 -1797.888 3750.691 -0.538 0.782 0.315
-2678.932 -1810.988 3794.227 -0.689 0.707 0.161
-2683.055 -1823.786 3839.678 -0.774 0.633 -0.026
-2696.491 -1836.06 3885.536 -0.800 0.569 -0.192
-2716.962 -1847.695 3930.199 -0.786 0.528 -0.320
-2742.469 -1858.519 3971.958 -0.746 0.517 -0.421
-2771.185 -1868.352 4008.906 -0.681 0.533 -0.502
-2801.258 -1877.065 4039.079 -0.587 0.574 -0.571
-2831.126 -1884.594 4060.949 -0.466 0.631 -0.620
-2860.351 -1891.079 4074.997 -0.329 0.695 -0.640
-2888.719 -1896.692 4082.178 -0.194 0.755 -0.627
-2915.912 -1901.576 4083.446 -0.077 0.804 -0.590
-2941.525 -1905.851 4079.814 0.014 0.839 -0.544
-2965.159 -1909.64 4072.369 0.089 0.860 -0.502
-2986.542 -1913.059 4062.029 0.161 0.869 -0.468
-3005.596 -1916.187 4049.043 0.237 0.868 -0.437
-3022.26 -1919.122 4033.562 0.317 0.859 -0.403
-3036.476 -1921.934 4015.729 0.398 0.843 -0.363
-3048.225 -1924.695 3995.692 0.477 0.821 -0.315
-3057.538 -1927.483 3973.575 0.549 0.794 -0.260
-3064.361 -1930.389 3949.506 0.613 0.767 -0.192
-3068.141 -1933.513 3923.935 0.661 0.742 -0.106
-3068.167 -1936.939 3897.443 0.688 0.726 -0.001
-3063.721 -1940.746 3870.624 0.685 0.719 0.116
-3054.081 -1945.004 3844.073 0.649 0.722 0.238
-3038.462 -1949.73 3818.442 0.586 0.730 0.351
-3016.479 -1954.883 3794.579 0.507 0.738 0.445
-2989.178 -1960.295 3773.859 0.416 0.747 0.519
-2957.868 -1965.769 3757.766 0.304 0.762 0.572
-2923.812 -1971.109 3747.836 0.166 0.784 0.598
-2888.267 -1976.114 3745.683 0.010 0.814 0.581
-2852.609 -1980.552 3753.001 -0.131 0.845 0.519
-2818.277 -1984.251 3770.673 -0.221 0.872 0.436
-2785.74 -1987.561 3796.562 -0.237 0.901 0.362
-2754.933 -1991.018 3827.948 -0.164 0.942 0.291
-2725.413 -1995.992 3861.819 0.011 0.981 0.193
-2697.679 -2003.286 3895.83 0.234 0.970 0.063
-2672.609 -2012.004 3927.89 0.396 0.917 -0.048
-2649.596 -2020.816 3955.802 0.453 0.886 -0.095
-2627.362 -2029.601 3979.114 0.442 0.895 -0.068
-2605.289 -2039.093 3997.97 0.402 0.916 0.004
-2582.578 -2049.059 4012.625 0.352 0.930 0.106
-2558.362 -2059.322 4023.334 0.306 0.924 0.231
-2531.635 -2069.768 4030.276 0.269 0.891 0.366
-2501.544 -2080.331 4033.857 0.236 0.837 0.494
-2468.75 -2090.906 4035.825 0.187 0.778 0.599
-2434.549 -2101.253 4038.327 0.107 0.733 0.672
-2400.192 -2111.119 4043.575 -0.007 0.717 0.697
-2366.795 -2120.271 4053.841 -0.141 0.743 0.654
-2335.337 -2128.592 4071.409 -0.246 0.802 0.545
-2306.674 -2135.96 4098.149 -0.276 0.871 0.406
-2280.777 -2142.437 4133.199 -0.233 0.930 0.283
-2257.249 -2148.156 4174.919 -0.152 0.971 0.187
-2235.638 -2153.167 4221.643 -0.068 0.991 0.119
-2215.426 -2157.461 4271.681 -0.012 0.997 0.079
-2196.038 -2161.008 4323.343 -0.012 0.997 0.079
