-1113.678 -622.0004 2462.407 0.000 1.000 0.000
-1163.191 -622.0004 2469.366 -0.002 1.000 0.000
-1182.997 -622.0004 2472.15 -0.025 1.000 0.004
-1194.337 -622.1608 2473.744 -0.119 0.993 0.017
-1205.926 -623.476 2475.373 -0.317 0.947 0.045
-1217.059 -627.7412 2476.937 -0.536 0.841 0.075
-1226.426 -634.8876 2478.254 -0.661 0.745 0.093
-1234.611 -642.879 2479.404 -0.696 0.711 0.098
-1363.345 -772.8791 2497.496 -0.700 0.707 0.098
-1492.08 -902.8791 2515.589 -0.700 0.707 0.098
-1620.815 -1032.879 2533.681 -0.689 0.718 0.099
-1749.55 -1162.879 2551.774 -0.642 0.760 0.102
-1775.316 -1184.392 2555.261 -0.566 0.817 0.106
-1795.783 -1198.429 2557.871 -0.488 0.866 0.108
-1812.844 -1207.881 2559.818 -0.421 0.900 0.110
-1828.745 -1215.098 2561.369 -0.380 0.918 0.116
-1845.307 -1221.994 2562.731 -0.358 0.925 0.127
-1862.945 -1228.915 2563.917 -0.338 0.931 0.139
-1881.765 -1235.834 2564.894 -0.319 0.935 0.154
-1901.884 -1242.729 2565.632 -0.299 0.939 0.171
-1923.416 -1249.578 2566.1 -0.279 0.941 0.190
-1946.479 -1256.357 2566.265 -0.262 0.942 0.211
-1971.208 -1263.073 2566.099 -0.250 0.938 0.241
-1997.797 -1269.964 2565.592 -0.245 0.927 0.284
-2026.479 -1277.25 2564.716 -0.242 0.908 0.343
-2057.514 -1285.012 2563.427 -0.239 0.879 0.413
-2091.161 -1293.323 2561.694 -0.235 0.843 0.484
-2127.661 -1302.253 2559.505 -0.226 0.803 0.552
-2166.963 -1311.792 2557.08 -0.206 0.765 0.611
-2208.17 -1321.673 2555.459 -0.169 0.737 0.655
-2250.232 -1331.587 2555.881 -0.113 0.726 0.678
-2292.081 -1341.224 2559.563 -0.040 0.740 0.672
-2332.617 -1350.262 2567.676 0.039 0.778 0.627
-2370.784 -1358.385 2581.32 0.105 0.836 0.539
-2405.944 -1365.457 2601.219 0.128 0.898 0.421
-2438.256 -1371.619 2626.619 0.095 0.951 0.295
-2467.888 -1377.046 2656.366 0.015 0.984 0.175
-2494.934 -1381.925 2689.29 -0.096 0.993 0.070
-2519.449 -1386.45 2724.227 -0.223 0.975 -0.013
-2541.453 -1390.81 2760.035 -0.350 0.934 -0.078
-2561.141 -1395.217 2795.7 -0.462 0.878 -0.126
-2579.447 -1400.019 2830.492 -0.549 0.819 -0.167
-2597.476 -1405.573 2863.686 -0.603 0.769 -0.213
-2616.483 -1412.148 2894.481 -0.625 0.731 -0.275
-2637.809 -1420.02 2922.003 -0.612 0.708 -0.353
-2662.684 -1429.523 2945.345 -0.567 0.700 -0.434
-2691.885 -1441.004 2963.633 -0.508 0.702 -0.499
-2724.621 -1454.943 2976.188 -0.452 0.710 -0.540
-2759.726 -1471.873 2982.392 -0.406 0.722 -0.560
-2796.011 -1492.317 2981.616 -0.373 0.735 -0.567
-2832.253 -1516.774 2973.24 -0.356 0.745 -0.564
-2867.167 -1545.671 2956.699 -0.351 0.754 -0.556
-2899.733 -1578.835 2932.167 -0.356 0.761 -0.542
-2930.428 -1614.528 2902.201 -0.371 0.770 -0.519
-2960.2 -1650.782 2869.729 -0.394 0.783 -0.481
-2989.898 -1685.556 2837.583 -0.417 0.803 -0.425
-3020.239 -1716.746 2808.624 -0.425 0.837 -0.344
-3051.823 -1742.291 2785.656 -0.396 0.886 -0.240
-3085.211 -1760.915 2770.444 -0.322 0.938 -0.129
-3120.025 -1773.349 2761.865 -0.217 0.976 -0.033
-3155.415 -1780.542 2758.417 -0.101 0.994 0.035
-3190.297 -1783.328 2758.722 0.009 0.997 0.079
-3223.459 -1782.545 2761.39 0.108 0.990 0.096
-3253.621 -1779.04 2764.974 0.197 0.976 0.091
-3279.698 -1773.673 2768.241 0.282 0.957 0.067
-3301.934 -1766.915 2771.008 0.364 0.931 0.031
-3321.066 -1759.107 2773.373 0.435 0.900 -0.006
-3337.906 -1750.56 2775.449 0.486 0.873 -0.040
-3353.285 -1741.563 2777.361 0.512 0.857 -0.061
-3368.038 -1732.39 2779.236 0.512 0.857 -0.061
