-3370.529 -1732.488 2760.401 0.506 0.860 -0.063
-3355.684 -1741.511 2758.513 0.480 0.876 -0.046
-3340.093 -1750.114 2756.581 0.431 0.902 -0.016
-3323.04 -1758.11 2754.502 0.365 0.931 0.021
-3303.785 -1765.326 2752.166 0.291 0.955 0.058
-3281.56 -1771.594 2749.447 0.217 0.973 0.085
-3255.542 -1776.746 2746.211 0.142 0.985 0.096
-3225.144 -1780.484 2742.578 0.058 0.995 0.086
-3191.103 -1781.936 2739.791 -0.039 0.998 0.053
-3154.558 -1780.008 2739.443 -0.149 0.989 -0.004
-3116.663 -1773.592 2743.166 -0.259 0.962 -0.087
-3078.65 -1761.554 2752.624 -0.349 0.918 -0.191
-3041.954 -1742.809 2769.428 -0.400 0.867 -0.298
-3007.882 -1717.006 2794.193 -0.409 0.826 -0.389
-2976.121 -1685.912 2824.504 -0.393 0.799 -0.455
-2945.749 -1651.615 2857.421 -0.371 0.782 -0.501
-2915.905 -1616.157 2890.06 -0.356 0.769 -0.532
-2885.825 -1581.62 2919.525 -0.349 0.759 -0.550
-2854.787 -1550.156 2943.002 -0.352 0.749 -0.561
-2822.269 -1523.304 2958.453 -0.367 0.738 -0.566
-2788.927 -1500.738 2966.128 -0.398 0.724 -0.564
-2755.779 -1481.847 2966.71 -0.444 0.710 -0.547
-2723.884 -1466.096 2960.823 -0.501 0.699 -0.510
-2694.323 -1452.978 2949.083 -0.564 0.693 -0.448
-2668.174 -1441.989 2932.098 -0.618 0.696 -0.364
-2646.015 -1432.609 2910.376 -0.644 0.714 -0.276
-2626.877 -1424.425 2884.369 -0.634 0.747 -0.201
-2609.56 -1417.111 2854.64 -0.591 0.794 -0.143
-2592.946 -1410.255 2821.889 -0.519 0.850 -0.093
-2575.824 -1403.475 2786.911 -0.418 0.907 -0.043
-2556.899 -1396.525 2750.56 -0.299 0.954 0.016
-2535.109 -1389.227 2713.831 -0.173 0.981 0.092
-2510.205 -1381.584 2677.99 -0.057 0.981 0.186
-2482.15 -1373.626 2644.287 0.032 0.955 0.294
-2450.945 -1365.363 2613.936 0.084 0.908 0.410
-2416.615 -1356.769 2588.118 0.085 0.849 0.521
-2379.206 -1347.786 2567.988 0.042 0.791 0.611
-2338.981 -1338.398 2554.268 -0.022 0.747 0.664
-2296.848 -1328.782 2546.018 -0.085 0.729 0.680
-2253.773 -1319.123 2541.984 -0.136 0.734 0.665
-2210.742 -1309.641 2540.982 -0.171 0.759 0.628
-2168.799 -1300.573 2541.856 -0.190 0.796 0.575
-2129.021 -1292.166 2543.461 -0.195 0.838 0.510
-2092.24 -1284.574 2544.862 -0.197 0.877 0.439
-2058.39 -1277.663 2545.928 -0.201 0.908 0.367
-2027.225 -1271.221 2546.714 -0.209 0.930 0.304
-1998.513 -1265.03 2547.258 -0.222 0.941 0.254
-1972.02 -1258.87 2547.587 -0.239 0.946 0.220
-1947.481 -1252.643 2547.658 -0.258 0.946 0.196
-1924.63 -1246.327 2547.419 -0.277 0.944 0.176
-1903.312 -1239.913 2546.897 -0.298 0.941 0.159
-1883.406 -1233.423 2546.12 -0.319 0.937 0.143
-1864.793 -1226.88 2545.117 -0.339 0.932 0.130
-1847.353 -1220.306 2543.917 -0.361 0.925 0.119
-1830.99 -1213.734 2542.552 -0.395 0.912 0.110
-1815.325 -1206.835 2541.01 -0.456 0.884 0.107
-1798.484 -1197.687 2539.079 -0.534 0.839 0.106
-1778.135 -1183.897 2536.478 -0.610 0.785 0.103
-1752.194 -1162.879 2532.958 -0.674 0.732 0.099
-1623.459 -1032.879 2514.866 -0.700 0.707 0.098
-1494.724 -902.8791 2496.774 -0.700 0.707 0.098
-1365.99 -772.8791 2478.681 -0.698 0.709 0.098
-1237.255 -642.879 2460.589 -0.678 0.729 0.095
-1229.07 -634.8876 2459.438 -0.592 0.802 0.083
-1219.704 -627.7412 2458.122 -0.400 0.915 0.056
-1208.571 -623.476 2456.557 -0.177 0.984 0.025
-1196.981 -622.1608 2454.929 -0.044 0.999 0.006
-1185.641 -622.0004 2453.335 -0.005 1.000 0.001
-1165.835 -622.0004 2450.551 0.000 1.000 0.000
-1116.322 -622.0004 2443.593 0.000 1.000 0.000
