-2213.84 -2161.001 4329.983 -0.008 0.998 0.059
-2233.163 -2158.142 4278.459 -0.054 0.995 0.078
-2253.062 -2155.613 4228.814 -0.139 0.982 0.125
-2273.902 -2152.981 4182.689 -0.231 0.951 0.206
-2296.069 -2149.801 4141.738 -0.296 0.899 0.322
-2319.986 -2145.645 4107.635 -0.292 0.833 0.470
-2346.143 -2140.122 4081.958 -0.196 0.765 0.613
-2375.119 -2132.802 4065.447 -0.039 0.718 0.694
-2406.537 -2123.655 4056.365 0.109 0.712 0.693
-2439.444 -2113.003 4052.433 0.218 0.743 0.633
-2472.761 -2101.098 4051.35 0.287 0.794 0.536
-2505.451 -2088.191 4050.708 0.330 0.846 0.419
-2536.47 -2074.553 4048.017 0.364 0.884 0.293
-2564.796 -2060.612 4041.164 0.400 0.900 0.171
-2590.606 -2046.959 4029.718 0.436 0.897 0.064
-2614.642 -2034.131 4013.746 0.463 0.886 -0.021
-2637.792 -2022.575 3993.355 0.464 0.882 -0.084
-2661.011 -2012.684 3968.63 0.399 0.911 -0.105
-2685.841 -2005.611 3939.934 0.239 0.969 -0.057
-2712.577 -2001.964 3907.548 0.017 0.998 0.062
-2740.083 -2000.332 3873.087 -0.166 0.965 0.202
-2768.284 -1998.569 3839.161 -0.251 0.916 0.313
-2797.624 -1996.17 3808.631 -0.250 0.883 0.398
-2827.952 -1993.735 3783.994 -0.183 0.856 0.483
-2859.01 -1990.893 3767.599 -0.053 0.826 0.561
-2890.851 -1987.283 3760.835 0.109 0.794 0.598
-2922.981 -1982.903 3762.709 0.261 0.768 0.585
-2954.245 -1977.959 3771.882 0.386 0.750 0.537
-2983.22 -1972.717 3786.943 0.485 0.739 0.467
-3008.448 -1967.458 3806.343 0.568 0.731 0.378
-3028.518 -1962.469 3828.433 0.636 0.723 0.269
-3042.52 -1957.949 3851.804 0.682 0.717 0.142
-3050.926 -1953.774 3875.873 0.695 0.719 0.011
-3054.451 -1949.793 3900.209 0.674 0.731 -0.107
-3053.792 -1945.962 3924.316 0.625 0.753 -0.206
-3049.637 -1942.252 3947.644 0.559 0.779 -0.283
-3042.688 -1938.645 3969.588 0.484 0.806 -0.342
-3033.583 -1935.141 3989.571 0.402 0.830 -0.387
-3022.492 -1931.746 4007.412 0.320 0.848 -0.422
-3009.418 -1928.449 4023.117 0.241 0.861 -0.448
-2994.319 -1925.232 4036.713 0.171 0.866 -0.469
-2977.12 -1922.073 4048.209 0.111 0.863 -0.492
-2957.757 -1918.996 4057.582 0.055 0.850 -0.525
-2936.333 -1915.959 4064.586 -0.016 0.822 -0.570
-2913.156 -1912.745 4068.324 -0.118 0.779 -0.616
-2888.407 -1909.082 4067.777 -0.249 0.722 -0.645
-2862.17 -1904.676 4061.851 -0.396 0.658 -0.641
-2834.559 -1899.228 4049.328 -0.534 0.596 -0.600
-2805.796 -1892.458 4028.907 -0.647 0.546 -0.531
-2776.517 -1884.169 3999.828 -0.729 0.519 -0.446
-2748.629 -1874.416 3963.571 -0.784 0.518 -0.343
-2724.338 -1863.322 3922.301 -0.812 0.545 -0.210
-2705.79 -1850.949 3878.267 -0.800 0.598 -0.040
-2694.905 -1837.449 3833.854 -0.730 0.665 0.159
-2693.307 -1823.081 3791.378 -0.586 0.734 0.344
-2701.644 -1808.054 3751.974 -0.391 0.806 0.443
-2717.323 -1792.805 3714.452 -0.195 0.880 0.434
-2737.085 -1778.02 3677.615 -0.024 0.936 0.351
-2757.563 -1764.525 3640.577 0.117 0.963 0.243
-2775.232 -1753.169 3602.504 0.234 0.960 0.152
-2786.299 -1744.83 3562.728 0.320 0.941 0.107
-2787.975 -1740.032 3521.477 0.361 0.926 0.108
-2782.261 -1737.432 3479.554 0.344 0.930 0.132
-2772.151 -1735.069 3437.088 0.274 0.948 0.162
-2760.33 -1731.068 3394.073 0.161 0.965 0.205
-2749.34 -1723.626 3350.585 0.019 0.961 0.276
-2741.654 -1710.91 3306.609 -0.128 0.919 0.374
-2739.282 -1691.51 3262.067 -0.259 0.840 0.476
-2742.37 -1666.286 3217.854 -0.358 0.743 0.565
-2750.645 -1636.835 3175.445 -0.415 0.642 0.645
-2763.82 -1604.868 3136.379 -0.420 0.552 0.721
-2781.542 -1572.163 3102.187 -0.368 0.480 0.796
-2803.324 -1540.583 3074.277 -0.262 0.435 0.862
-2828.5 -1511.628 3053.398 -0.119 0.422 0.899
-2855.934 -1485.46 3038.77 0.035 0.446 0.894
-2884.385 -1461.981 3029.298 0.180 0.501 0.847
-2912.649 -1441.138 3023.924 0.301 0.574 0.761
-2939.553 -1422.926 3021.629 0.393 0.651 0.649
-2963.909 -1407.395 3021.443 0.453 0.722 0.523
-2984.765 -1394.6 3022.537 0.481 0.781 0.398
-3002.462 -1384.348 3024.491 0.475 0.831 0.290
-3017.743 -1376.336 3027.029 0.441 0.873 0.208
-3031.305 -1370.124 3029.892 0.392 0.908 0.149
-3043.822 -1365.221 3032.778 0.335 0.936 0.107
-3055.94 -1361.254 3035.338 0.280 0.957 0.075
-3067.997 -1357.957 3037.231 0.233 0.971 0.050
-3079.899 -1355.233 3038.463 0.195 0.980 0.030
-3091.606 -1352.987 3039.167 0.165 0.986 0.016
-3103.123 -1351.109 3039.485 0.144 0.990 0.007
-3114.465 -1349.489 3039.552 0.109 0.994 0.002
-3126.0 -1348.0 3039.5 0.041 0.999 0.000
-3146.0 -1348.0 3039.5 0.000 1.000 0.000
-3196.0 -1348.0 3039.5 0.000 1.000 0.000
