-1972.16 -1701.0 4663.506 0.000 1.000 0.000
-1932.722 -1701.0 4694.243 -0.019 1.000 -0.007
-1916.946 -1701.0 4706.536 -0.082 0.996 -0.023
-1914.632 -1700.544 4708.803 -0.136 0.991 -0.000
-1912.168 -1700.159 4711.227 -0.158 0.986 0.056
-1909.662 -1699.883 4714.019 -0.182 0.977 0.108
-1907.245 -1699.762 4717.253 -0.212 0.966 0.150
-1905.081 -1699.84 4720.975 -0.247 0.952 0.181
-1903.315 -1700.169 4725.269 -0.287 0.936 0.203
-1902.128 -1700.875 4730.379 -0.332 0.917 0.219
-1901.761 -1702.251 4736.818 -0.383 0.894 0.231
-1902.178 -1704.63 4745.413 -0.440 0.866 0.236
-1903.338 -1708.523 4757.587 -0.499 0.835 0.233
-1905.311 -1714.471 4774.763 -0.556 0.801 0.223
-1908.202 -1722.996 4798.269 -0.610 0.765 0.206
-1912.187 -1734.415 4828.854 -0.660 0.730 0.179
-1917.711 -1748.229 4865.004 -0.705 0.695 0.140
-1925.278 -1763.724 4904.607 -0.744 0.663 0.086
-1935.396 -1780.184 4945.548 -0.772 0.635 0.016
-1948.578 -1796.897 4985.717 -0.780 0.623 -0.060
-1965.336 -1813.146 5022.993 -0.746 0.657 -0.108
-1984.503 -1829.217 5056.384 -0.658 0.745 -0.109
-2008.161 -1844.708 5085.4 -0.545 0.835 -0.075
-2036.414 -1859.928 5110.344 -0.441 0.897 -0.009
-2069.283 -1875.174 5131.537 -0.358 0.930 0.083
-2106.751 -1890.755 5149.355 -0.297 0.935 0.193
-2148.807 -1906.989 5164.231 -0.255 0.916 0.310
-2195.022 -1924.072 5176.662 -0.222 0.877 0.427
-2243.346 -1941.709 5187.326 -0.190 0.820 0.539
-2291.378 -1959.49 5196.942 -0.152 0.751 0.642
-2336.69 -1976.991 5206.207 -0.098 0.674 0.732
-2376.803 -1993.76 5215.78 -0.015 0.596 0.803
-2409.192 -2009.283 5226.232 0.115 0.532 0.839
-2431.921 -2023.053 5237.78 0.304 0.501 0.811
-2444.994 -2034.614 5249.512 0.509 0.569 0.646
-2449.538 -2043.775 5260.454 0.559 0.767 0.316
-2445.696 -2048.773 5271.904 0.358 0.932 0.056
-2433.958 -2052.115 5283.334 0.117 0.993 0.029
-2412.701 -2053.498 5294.48 -0.035 0.993 0.115
-2381.807 -2052.471 5304.274 -0.110 0.964 0.241
-2343.927 -2049.642 5312.628 -0.140 0.917 0.373
-2302.449 -2045.997 5319.896 -0.148 0.853 0.501
-2260.617 -2042.572 5326.571 -0.149 0.772 0.619
-2221.535 -2040.421 5333.206 -0.157 0.675 0.721
-2188.125 -2040.646 5340.437 -0.204 0.572 0.794
-2162.719 -2044.425 5349.171 -0.317 0.500 0.806
-2146.387 -2052.661 5360.726 -0.440 0.528 0.727
-2139.956 -2065.559 5374.289 -0.474 0.654 0.589
-2144.322 -2081.292 5390.494 -0.424 0.768 0.480
-2157.961 -2099.504 5409.844 -0.361 0.827 0.432
-2180.363 -2120.795 5433.71 -0.317 0.851 0.419
-2210.949 -2145.697 5462.874 -0.298 0.851 0.433
-2247.052 -2175.28 5496.699 -0.302 0.830 0.470
-2285.459 -2210.721 5534.176 -0.319 0.790 0.523
-2322.95 -2253.158 5574.271 -0.343 0.731 0.590
-2356.306 -2303.712 5615.942 -0.363 0.653 0.665
-2382.339 -2363.511 5658.166 -0.371 0.565 0.737
-2398.624 -2432.773 5700.087 -0.362 0.491 0.792
-2405.647 -2507.829 5741.291 -0.342 0.446 0.827
-2404.598 -2583.96 5781.401 -0.319 0.426 0.846
-2396.684 -2656.396 5820.021 -0.303 0.431 0.850
-2383.163 -2720.319 5856.717 -0.316 0.460 0.830
-2365.699 -2770.699 5891.384 -0.370 0.504 0.780
-2345.497 -2804.525 5923.457 -0.461 0.550 0.697
-2324.294 -2824.335 5954.359 -0.571 0.582 0.579
-2303.661 -2833.767 5986.067 -0.681 0.587 0.437
-2285.278 -2836.012 6020.594 -0.771 0.570 0.284
-2271.239 -2834.125 6059.779 -0.829 0.544 0.132
-2263.927 -2831.347 6105.139 -0.856 0.517 0.001
-2265.194 -2830.6 6157.037 -0.863 0.493 -0.108
-2274.796 -2832.853 6212.833 -0.859 0.473 -0.197
-2292.003 -2838.565 6269.458 -0.841 0.471 -0.266
-2316.144 -2848.213 6323.875 -0.795 0.535 -0.285
-2344.67 -2862.938 6374.185 -0.711 0.664 -0.233
-2379.29 -2883.15 6416.261 -0.617 0.779 -0.110
-2418.844 -2908.792 6447.349 -0.553 0.831 0.062
-2460.813 -2938.051 6468.637 -0.509 0.821 0.258
-2502.698 -2968.85 6482.7 -0.463 0.764 0.449
-2542.222 -2999.252 6492.196 -0.390 0.680 0.621
-2577.157 -3027.353 6499.717 -0.261 0.595 0.760
-2605.296 -3051.268 6507.726 -0.055 0.536 0.843
-2625.09 -3069.858 6517.957 0.221 0.509 0.832
-2636.852 -3084.385 6529.816 0.514 0.516 0.685
-2641.541 -3096.779 6542.698 0.711 0.573 0.407
-2639.492 -3109.094 6556.858 0.710 0.689 0.145
-2628.057 -3120.518 6572.746 0.599 0.796 0.087
-2608.639 -3135.373 6588.315 0.513 0.838 0.188
-2581.248 -3154.998 6602.862 0.449 0.838 0.310
-2548.099 -3177.914 6616.858 0.377 0.823 0.426
-2512.085 -3201.873 6631.229 0.279 0.804 0.525
-2476.047 -3224.692 6647.026 0.138 0.792 0.595
-2442.811 -3244.202 6665.334 -0.066 0.793 0.605
-2415.311 -3258.188 6687.176 -0.306 0.799 0.518
-2395.857 -3265.074 6712.97 -0.459 0.821 0.340
-2381.285 -3267.361 6741.138 -0.467 0.876 0.119
-2371.927 -3264.797 6773.047 -0.381 0.922 -0.072
-2366.679 -3258.564 6807.685 -0.251 0.949 -0.188
-2364.307 -3249.921 6844.02 -0.128 0.962 -0.242
-2363.499 -3240.151 6881.074 -0.128 0.962 -0.242
