-2382.499 -3240.109 6881.177 -0.104 0.942 -0.320
-2383.072 -3252.626 6845.273 -0.207 0.936 -0.285
-2384.72 -3263.824 6810.493 -0.350 0.916 -0.195
-2388.728 -3272.462 6777.519 -0.465 0.885 -0.030
-2396.374 -3277.338 6746.949 -0.494 0.842 0.216
-2409.031 -3277.267 6719.199 -0.356 0.798 0.486
-2428.604 -3268.47 6696.039 -0.099 0.768 0.633
-2455.078 -3252.968 6676.896 0.126 0.761 0.636
-2487.024 -3231.967 6660.721 0.282 0.769 0.573
-2521.875 -3207.405 6646.545 0.390 0.786 0.479
-2556.955 -3181.331 6633.317 0.470 0.802 0.369
-2589.649 -3155.773 6619.886 0.538 0.804 0.255
-2617.369 -3132.726 6604.981 0.615 0.773 0.157
-2637.604 -3113.807 6587.74 0.699 0.705 0.120
-2649.287 -3098.386 6569.121 0.724 0.657 0.211
-2655.334 -3086.042 6550.146 0.624 0.639 0.449
-2652.263 -3073.331 6530.961 0.394 0.612 0.685
-2639.74 -3058.705 6513.269 0.116 0.605 0.787
-2618.016 -3040.611 6498.47 -0.125 0.634 0.763
-2587.713 -3018.003 6486.982 -0.290 0.700 0.653
-2550.957 -2992.201 6476.866 -0.384 0.781 0.493
-2510.18 -2965.052 6465.653 -0.440 0.845 0.304
-2467.76 -2938.337 6450.954 -0.485 0.869 0.101
-2426.018 -2913.774 6430.475 -0.544 0.834 -0.091
-2387.046 -2892.91 6401.922 -0.635 0.733 -0.243
-2352.269 -2876.701 6363.516 -0.741 0.592 -0.316
-2322.253 -2864.789 6316.882 -0.823 0.487 -0.292
-2299.529 -2855.258 6264.386 -0.858 0.466 -0.216
-2283.415 -2849.485 6209.654 -0.865 0.486 -0.129
-2274.64 -2847.048 6155.932 -0.860 0.509 -0.029
-2273.84 -2847.502 6106.449 -0.840 0.535 0.094
-2281.184 -2849.94 6063.24 -0.791 0.562 0.242
-2295.307 -2851.546 6024.964 -0.709 0.582 0.398
-2314.533 -2848.884 5989.846 -0.601 0.582 0.547
-2336.972 -2838.332 5956.445 -0.488 0.556 0.673
-2360.373 -2816.345 5923.508 -0.391 0.511 0.765
-2382.342 -2779.726 5889.786 -0.326 0.467 0.822
-2400.83 -2726.827 5854.165 -0.302 0.439 0.846
-2414.597 -2661.392 5816.128 -0.312 0.430 0.847
-2422.529 -2587.713 5776.36 -0.334 0.441 0.833
-2423.437 -2510.416 5735.137 -0.356 0.478 0.803
-2416.091 -2434.143 5692.737 -0.368 0.542 0.755
-2399.223 -2363.593 5649.452 -0.366 0.628 0.687
-2372.363 -2302.692 5605.835 -0.348 0.711 0.611
-2338.137 -2251.452 5562.982 -0.324 0.777 0.540
-2299.9 -2208.719 5521.992 -0.303 0.822 0.482
-2260.965 -2173.296 5483.911 -0.293 0.849 0.439
-2224.637 -2144.013 5449.804 -0.302 0.858 0.416
-2194.24 -2119.764 5420.773 -0.337 0.844 0.417
-2172.535 -2099.691 5397.655 -0.394 0.803 0.447
-2160.126 -2083.881 5380.269 -0.457 0.717 0.526
-2156.484 -2072.975 5368.559 -0.447 0.575 0.685
-2159.657 -2066.25 5361.23 -0.284 0.460 0.841
-2170.606 -2060.181 5356.277 -0.124 0.502 0.856
-2191.966 -2055.752 5351.301 -0.080 0.632 0.771
-2223.543 -2053.816 5346.529 -0.080 0.741 0.666
-2262.14 -2053.887 5341.757 -0.086 0.830 0.551
-2304.27 -2055.028 5336.512 -0.083 0.900 0.427
-2346.673 -2056.246 5330.229 -0.060 0.952 0.299
-2386.206 -2056.538 5322.304 0.003 0.984 0.180
-2419.786 -2054.862 5312.057 0.137 0.986 0.097
-2444.611 -2050.319 5298.963 0.347 0.931 0.110
-2459.535 -2042.864 5283.503 0.550 0.794 0.261
-2463.719 -2032.998 5267.067 0.586 0.644 0.492
-2459.386 -2022.212 5249.811 0.436 0.567 0.699
-2444.514 -2009.601 5233.147 0.232 0.557 0.798
-2419.641 -1995.688 5218.046 0.076 0.600 0.797
-2385.459 -1980.787 5204.925 -0.027 0.668 0.744
-2344.113 -1965.243 5193.249 -0.092 0.743 0.663
-2298.006 -1949.398 5182.271 -0.137 0.813 0.565
-2249.544 -1933.611 5171.294 -0.170 0.874 0.456
-2201.163 -1918.262 5159.646 -0.201 0.920 0.338
-2155.319 -1903.742 5146.68 -0.238 0.947 0.216
-2114.0 -1890.302 5131.798 -0.290 0.952 0.097
-2077.435 -1877.667 5114.556 -0.366 0.930 -0.007
-2045.398 -1865.425 5094.53 -0.466 0.880 -0.091
-2017.614 -1853.143 5071.239 -0.583 0.800 -0.142
-1993.8 -1840.358 5044.118 -0.698 0.701 -0.145
-1973.73 -1826.592 5012.518 -0.774 0.628 -0.081
-1958.516 -1810.102 4976.343 -0.787 0.617 0.012
-1946.645 -1793.001 4937.17 -0.761 0.643 0.090
-1937.673 -1776.02 4897.111 -0.724 0.674 0.149
-1931.128 -1759.887 4858.292 -0.680 0.706 0.196
-1926.524 -1745.325 4822.818 -0.631 0.740 0.232
-1923.365 -1733.05 4792.792 -0.579 0.772 0.263
-1921.224 -1723.604 4769.823 -0.523 0.801 0.292
-1919.937 -1716.75 4753.366 -0.464 0.823 0.327
-1919.396 -1712.048 4742.326 -0.397 0.836 0.379
-1919.458 -1709.076 4735.695 -0.307 0.830 0.466
-1919.865 -1707.369 4732.441 -0.181 0.806 0.564
-1920.388 -1706.293 4730.925 -0.053 0.805 0.591
-1921.096 -1705.328 4729.602 0.038 0.841 0.540
-1922.056 -1704.398 4728.213 0.098 0.883 0.460
-1923.295 -1703.507 4726.746 0.137 0.918 0.373
-1924.844 -1702.651 4725.158 0.166 0.942 0.290
-1926.688 -1701.823 4723.433 0.160 0.968 0.196
-1928.625 -1701.0 4721.522 0.067 0.995 0.069
-1944.401 -1701.0 4709.229 0.000 1.000 0.000
-1983.839 -1701.0 4678.493 0.000 1.000 0.000
